    
 1231
   8.8008254  27.7404119  31.2609199   9.2241397  28.5343008  31.7225317
   8.7434137  27.9510048  30.2730367   7.8709428  27.6012515  31.6227299
   9.6318838  26.5247265  31.4684296   9.7063339  26.3447327  32.5427011
   9.0033111  25.2630198  30.8254822   9.5659649  24.3915221  31.1629470
   7.9820744  25.1415653  31.1894645   8.9878234  25.2348639  29.2866768
  10.0009190  25.3973952  28.9180570   8.6967595  24.2319216  28.9750481
   7.8842597  26.4203477  28.4596644   6.2967231  25.5491447  28.5749664
   6.3752065  24.5769601  28.0871371   6.0212592  25.4094843  29.6202309
   5.5248654  26.1351383  28.0750564  11.0494633  26.7834089  30.9608745
  11.2733575  27.7996264  30.3007622  12.0082639  25.8886561  31.2224927
  11.8004116  25.0544437  31.7543196  13.3198995  26.0057133  30.5857557
  13.6431087  27.0457982  30.6817325  14.3782191  25.1283939  31.2762783
  14.2390555  25.1643963  32.3588085  14.2768744  24.0972626  30.9354868
  15.7815709  25.6745718  30.9379186  15.8501981  25.8360721  29.8636977
  15.9012174  26.6415688  31.4280227  16.9677987  24.7933775  31.3425163
  18.1002395  25.0608529  30.9572841  16.7946084  23.7310739  32.1050554
  17.6067112  23.1876355  32.3545210  15.8750985  23.4646391  32.4232407
  13.1805986  25.6770225  29.0912706  12.7044861  24.6051954  28.7097148
  13.5908898  26.6243799  28.2507324  13.9869972  27.4719541  28.6346669
  13.5971116  26.5185603  26.7899216  13.2924879  25.5135666  26.4964069
  12.5933991  27.5440928  26.2075936  11.7871419  27.6133882  26.9374071
  13.1946297  28.9593080  26.0689016  13.4760425  29.3435384  27.0492141
  14.0728831  28.9690779  25.4261401  12.4546228  29.6165392  25.6213327
  11.8823836  27.1218921  24.9039507  11.4178650  26.1467254  25.0371404
  11.0713870  27.8255661  24.7277592  12.7198178  27.1031850  23.6275387
  13.3860503  27.9549806  23.5812529  13.2941308  26.1857794  23.5553306
  12.0437432  27.1606894  22.7820898  15.0246649  26.7255846  26.2956406
  15.8166567  27.4362402  26.9202468  15.3413150  26.1376816  25.1530105
  14.6766585  25.4876166  24.7484528  16.5580583  26.3782229  24.4107092
  17.0810163  27.2006231  24.8753150  17.4656342  25.1399374  24.4994705
  17.3922356  24.7466591  25.5086516  17.1076581  24.3564522  23.8309363
  18.9299505  25.4111368  24.2167731  19.3572381  25.7484806  22.9193095
  18.6464081  25.7994018  22.1080976  20.7147695  26.0185764  22.6769304
  21.0436341  26.2802580  21.6853898  21.6508595  25.9476165  23.7224831
  22.6957710  26.1552712  23.5304151  21.2285952  25.6016685  25.0163782
  21.9464483  25.5412580  25.8225400  19.8721550  25.3311413  25.2612392
  19.5587472  25.0630349  26.2588619  16.1776242  26.7744154  22.9836133
  15.9445229  25.9038402  22.1542238  16.1014623  28.0792067  22.6969267
  16.2568952  28.7365977  23.4451430  16.0688436  28.5879387  21.3154267
  15.5271242  27.8796448  20.6868280  15.3935166  29.9754939  21.1594575
  15.9810914  30.7262638  21.6891158  15.3443380  30.3520772  19.6667750
  16.3503650  30.4167746  19.2524748  14.7750766  29.6069127  19.1096195
  14.8738836  31.3234121  19.5416208  13.9718005  30.0241334  21.7377569
  13.3658281  29.2187208  21.3224155  14.0136829  29.9381338  22.8225556
  13.5053588  30.9810838  21.5011247  17.5170045  28.6710617  20.8475857
  18.2627730  29.5406545  21.2987703  17.9308761  27.7706295  19.9543438
  17.3059924  27.0179869  19.6774497  19.3007723  27.7770162  19.4428975
  19.9577069  28.0894111  20.2581018  19.7401152  26.3479718  19.0778748
  19.5060728  25.6869364  19.9122088  19.1823764  25.9971407  18.2167011
  21.2560657  26.2952580  18.8071229  21.4892083  26.8389616  17.8923154
  21.7738862  26.7985892  19.6231818  21.8067918  24.8625662  18.7223813
  22.8845206  24.8916606  18.8915945  21.3723419  24.2670636  19.5279800
  21.5338963  24.1628070  17.3817759  21.8006563  23.1063254  17.4886277
  20.4639352  24.2086879  17.1606259  22.3272818  24.7552791  16.2695048
  22.0532837  25.7110730  16.0892150  23.3144458  24.7500040  16.4888107
  22.2052815  24.2261876  15.4171053  19.4885592  28.8247753  18.3281142
  19.4482530  28.5065153  17.1364726  19.7257932  30.0740234  18.7459446
  19.5822255  30.2527509  19.7322300  20.6345243  31.0165687  18.0698018
  20.5384631  30.9238108  16.9862790  20.3051169  32.4622583  18.4774273
  21.0059109  33.1448304  17.9936427  18.8900259  32.8790694  18.0717568
  18.7708775  32.7684082  16.9933518  18.1446934  32.2689059  18.5822439
  18.7296806  33.9262478  18.3307716  20.4398575  32.5772744  19.8780233
  20.0088136  33.4017889  20.1605244  22.0743080  30.6460764  18.4525653
  22.2979833  29.6468175  19.1408746  23.0667317  31.4466859  18.0530886
  22.8523202  32.2354368  17.4594127  24.4612834  31.2392246  18.4698385
  24.6864208  30.1707207  18.4223767  25.4297247  31.9738794  17.5171750
  25.1603348  33.0295138  17.4600766  26.4171474  31.9242418  17.9786688
  25.5644312  31.3902059  16.0919569  25.6249737  30.3025460  16.1551057
  24.3952743  31.7671747  15.1670522  23.4822484  31.2677587  15.4849662
  24.2452020  32.8474044  15.1739813  24.6109767  31.4473757  14.1470147
  26.8714582  31.9024546  15.4659703  26.8646511  32.9921996  15.4186695
  27.7221350  31.5755641  16.0653458  26.9863043  31.4999896  14.4591686
  24.7250744  31.6693557  19.9299772  25.7640228  31.2928725  20.4802973
  23.8270586  32.4566242  20.5512095  22.9717537  32.6672994  20.0562416
  24.0932391  33.1832909  21.8086196  25.1423377  33.0369841  22.0658578
  23.9387067  34.6995174  21.6050130  24.6451597  35.0086003  20.8310476
  22.5413530  35.1686753  21.1845742  22.2520480  34.6924801  20.2492089
  21.8067009  34.9418565  21.9556069  22.5551799  36.2467825  21.0265762
  24.2829285  35.3448494  22.8112998  24.2951169  36.3065845  22.6574513
  23.3174856  32.6563380  23.0156369  23.9476474  32.3523528  24.0313187
  21.9890384  32.4994219  22.9325513  21.5214719  32.7021871  22.0584371
  21.1678885  32.0809495  24.0776676  21.1230191  30.9921798  24.0636246
  21.6543201  32.3627352  25.0122260  19.7237671  32.5918965  24.1062712
  19.1708861  33.0417686  23.1006078  19.0865039  32.4371252  25.2736033
  19.6596178  32.2028207  26.0734227  17.6605814  32.0726827  25.3894596
  17.0782453  32.7263925  24.7377207  17.5239183  30.6208811  24.8628167
  16.5126987  30.2596046  25.0616949  17.6422770  30.6538944  23.7778593
  18.5461512  29.5850145  25.3992470  18.4208504  28.6719701  24.8300365
  19.5640723  29.9020161  25.1888749  18.4356206  29.2822686  26.9027163
  19.0209883  30.0174069  27.4557887  17.3945969  29.3591641  27.2148047
  18.9591156  27.8785353  27.2412149  18.3899326  27.1473738  26.6592076
  20.0113429  27.8038929  26.9452405  18.8075531  27.5747625  28.6886301
  19.3490039  28.2152085  29.2522656  17.8385815  27.6502808  28.9639676
  19.1188902  26.6366025  28.9043055  17.0663612  32.2209327  26.8178786
  17.8315242  32.2522405  27.7841403  15.7183862  32.2553053  26.9278292
  15.2188151  32.3010318  26.0503533  14.8396152  32.1276076  28.1331030
  14.7701350  31.0662581  28.3719194  15.4051650  32.8169709  29.3916431
  16.3896150  32.4117814  29.6215095  15.5114548  34.3392598  29.2678341
  16.1328469  34.6040099  28.4127954  14.5231676  34.7812947  29.1418273
  15.9734092  34.7454296  30.1675901  14.5708714  32.5016467  30.4827117
  14.9915370  32.8295900  31.2976980  13.4064958  32.6041996  27.8275416
  13.2283274  33.4759979  26.9777379  12.3947428  32.0566720  28.5195036
  12.6572204  31.4403774  29.2794183  10.9486445  32.3959285  28.4128919
  10.8651355  33.4623153  28.1914498  10.2287826  31.6113420  27.2729208
   9.1851865  31.9266498  27.2542857  10.7626037  31.9972463  25.8825607
  10.7171954  33.0805051  25.7635929  11.7901518  31.6712262  25.7527464
  10.1503402  31.5534912  25.1006163  10.2178241  30.0925774  27.5751911
  11.2371944  29.7321966  27.6174175   9.7846248  29.9142312  28.5575506
   9.4078149  29.2369611  26.5985679   8.3479456  29.4463111  26.7256285
   9.7018739  29.4267666  25.5679416   9.5686980  28.1831366  26.8199502
  10.1823093  32.1634782  29.7373725  10.7268562  31.6290947  30.7082459
   8.8790989  32.4827979  29.7202444   8.5337699  32.9085804  28.8719654
   7.8505931  32.1331872  30.7171984   8.3296010  31.6649189  31.5779654
   7.1741042  33.4189789  31.2155689   7.9232931  34.0345659  31.7187146
   6.5367319  34.2529713  30.0969447   7.3071933  34.6468441  29.4348089
   5.8431594  33.6497799  29.5133366   6.0033697  35.0991972  30.5292986
   6.1800993  33.0672598  32.1499732   5.9004734  33.8739684  32.6192496
   6.8451800  31.1314721  30.1313097   6.6652263  31.0728695  28.9132722
   6.1637496  30.3558233  30.9881824   6.2859957  30.5463353  31.9742633
   5.1685993  29.3350961  30.5988280   5.6581342  28.5686060  29.9924589
   4.5324756  28.6667595  31.8430132   4.0898731  29.4334750  32.4809955
   3.7067692  28.0547197  31.4738246   5.4268592  27.7450373  32.6985535
   6.0644147  27.1587357  32.0375345   6.3050139  28.5232049  33.6925798
   7.0005123  29.1768077  33.1713751   5.6780121  29.1260459  34.3512060
   6.8822328  27.8247286  34.3005879   4.5538603  26.7625619  33.4941300
   3.8745363  27.3089157  34.1499653   3.9716927  26.1440968  32.8094529
   5.1838495  26.1071069  34.0973700   4.0313275  29.9048563  29.7314400
   3.4639999  29.1795502  28.9161015   3.7125943  31.1929524  29.8896354
   4.2163623  31.7130698  30.5955720   2.6108055  31.8644392  29.1901862
   1.8113800  31.1345841  29.0565450   2.0317276  32.9892809  30.0723345
   1.1459384  33.3979354  29.5847721   1.7122303  32.5594733  31.0232226
   3.0111555  34.1378672  30.3527377   3.8207300  33.7683701  30.9809714
   3.4441843  34.4895717  29.4144628   2.3114792  35.3066272  31.0632083
   2.0697333  35.2193275  32.2905723   2.0019102  36.3267917  30.4025421
   2.9720045  32.3721814  27.7780003   2.1155346  32.9610436  27.1145483
   4.2104087  32.1734483  27.3018336   4.8773449  31.6614968  27.8747615
   4.6483522  32.6801189  25.9880485   4.3736274  33.7364816  25.9664599
   6.1909228  32.6132507  25.8251949   6.6345672  32.8461177  26.7957669
   6.7308951  31.2457511  25.3778631   6.3703440  30.4635862  26.0460931
   6.4237158  31.0234695  24.3555647   7.8171165  31.2652503  25.3968057
   6.7084650  33.6740942  24.8435979   6.3380040  33.4737016  23.8401724
   6.3815529  34.6620656  25.1622505   7.7988905  33.6624886  24.8268031
   3.9074767  31.9696306  24.8438561   3.8629186  30.7394720  24.7807807
   3.3511729  32.7486184  23.9143844   3.4055876  33.7499459  24.0376437
   2.9583216  32.2460018  22.5965025   2.7237065  31.1966691  22.6899752
   1.6745744  32.9226472  22.0758167   1.4270182  32.4868401  21.1075414
   0.8697911  32.6742345  22.7675053   1.7317604  34.4499948  21.9083734
   1.9445141  34.9150037  22.8722623   2.5416692  34.6980748  21.2221700
   0.4160844  35.0327715  21.3556728  -0.6812630  34.5304681  21.6940563
   0.4727051  36.0170207  20.5826997   4.1432723  32.3779543  21.6318597
   4.8286410  33.3927741  21.6818326   4.4284725  31.3967187  20.7610662
   4.2883856  29.9973445  21.0949634   3.2962310  29.7200383  21.4159773
   4.9967483  29.7684766  21.8876769   4.6704321  29.2187873  19.8544771
   3.7711064  28.8425296  19.3673917   5.3235855  28.4046703  20.1553821
   5.3872703  30.2065833  18.9315618   4.7909044  30.3677433  18.0350195
   6.3821153  29.8532490  18.6620941   5.4690484  31.4956722  19.7439192
   6.4137770  31.4870859  20.2802310   5.4576384  32.7437900  18.8482078
   6.5083445  33.0874735  18.3178356   4.3438644  33.4784550  18.7338183
   3.5012256  33.1606919  19.1854929   4.3580856  34.8213921  18.1198163
   4.8409316  34.7642973  17.1441871   2.9206139  35.3184140  17.9117653
   2.2900251  34.4848238  17.6019942   2.5347849  35.7088249  18.8547688
   2.8676147  36.3270007  16.9122347   1.9474420  36.6518413  16.8359301
   5.1406597  35.8356791  18.9841325   5.9222528  36.6442957  18.4796624
   5.0007561  35.7359475  20.3103910   4.4554018  34.9592686  20.6660403
   5.7810838  36.4695843  21.3037313   5.8119273  37.5063950  20.9883950
   5.0546222  36.4346257  22.6635799   3.9920627  36.6296439  22.5002262
   5.1406400  35.4366000  23.0911350   5.5696712  37.4610817  23.6900708
   6.0361964  38.5545451  23.2969482   5.4454257  37.1914248  24.9077371
   7.2200933  35.9246024  21.3924276   8.1513603  36.7107977  21.5463478
   7.4353949  34.6067409  21.2144672   6.6207806  34.0066924  21.1250346
   8.7897280  34.0158456  21.2017971   9.3151490  34.4474255  22.0534229
   8.7852323  32.4888165  21.4320091   7.8135654  32.1925107  21.8304803
   9.1361552  31.5960254  20.2320221   8.4549969  31.7724530  19.4029612
  10.1569116  31.7896472  19.8991265   9.0564695  30.5464807  20.5170426
   9.7597994  32.2189372  22.4113043   9.7793272  31.2627143  22.5776880
   9.5846876  34.4663137  19.9812188  10.7061682  34.9460217  20.1403430
   9.0129460  34.4152453  18.7716300   8.0774875  34.0275007  18.6852770
   9.7234853  34.8625818  17.5619887  10.7157312  34.4050684  17.5915252
   9.0475227  34.3747662  16.2527418   8.7720731  33.3269368  16.3898174
   7.7605686  35.1482046  15.9223482   7.1113917  35.1617169  16.7909337
   7.9922535  36.1709178  15.6252781   7.2245526  34.6541670  15.1126259
  10.0697856  34.4377068  15.0901067  10.4872251  35.4419202  15.0220421
  10.8863690  33.7505417  15.3147868   9.5159293  34.0766033  13.7049337
   8.9698102  33.1357440  13.7429523   8.8495338  34.8638791  13.3513310
  10.3426811  33.9822962  13.0002418   9.9763242  36.3732936  17.5945210
  11.0838314  36.7852552  17.2505481   9.0310899  37.1888690  18.0871955
   8.1299556  36.8069003  18.3529223   9.2648342  38.6318133  18.2002282
   9.6924746  38.9250087  17.2502271   7.9698784  39.4606969  18.3032797
   8.1737039  40.4488802  17.8909467   7.2055621  38.9993746  17.6774922
   7.4240657  39.6665638  19.7196163   7.2203267  38.6954962  20.1513796
   8.1873213  40.1475722  20.3345355   6.1553508  40.5370903  19.7318050
   5.1441681  40.1837584  19.0822699   6.1647126  41.6100709  20.3802636
  10.3088288  38.9709187  19.2783336  11.1317174  39.8607858  19.0630592
  10.3531978  38.2188531  20.3874928   9.6242139  37.5285464  20.5407134
  11.4074940  38.3431385  21.3985625  11.4902254  39.3911268  21.6898893
  11.0743278  37.5112032  22.6550821  10.7653767  36.5086952  22.3564818
  11.9777666  37.4022002  23.2568582  10.0065507  38.1315359  23.5601437
   9.8149899  39.3421288  23.6088842   9.3156196  37.3185896  24.3414350
   8.5741482  37.7051580  24.9026191   9.4601784  36.3243865  24.2887200
  12.7692850  37.9234478  20.8349349  13.7464549  38.6418090  21.0240112
  12.8520675  36.7987630  20.1197574  12.0052428  36.2355759  20.0176275
  14.1196749  36.2915456  19.5641355  14.8382946  36.2481508  20.3857467
  13.9659350  34.8511325  19.0196722  13.0961874  34.8174545  18.3607929
  15.1957095  34.3678775  18.2281312  15.3060384  34.9371595  17.3053356
  16.0973551  34.4822818  18.8303034  15.0717697  33.3177007  17.9683220
  13.7438278  33.8699840  20.1877590  14.6851451  33.6772178  20.7025234
  13.0378967  34.2657828  20.9148920  13.3420510  32.9358751  19.7995669
  14.6927477  37.2513796  18.5119623  15.8786342  37.5733497  18.5903042
  13.8741125  37.7861763  17.5927269  12.9020554  37.4898471  17.5464648
  14.3666671  38.7702408  16.6156755  15.2883686  38.3686263  16.1951412
  13.3875241  38.9364168  15.4346873  13.9140370  39.4484030  14.6261385
  13.1026025  37.9464373  15.0685253  12.1252844  39.7394504  15.7734535
  11.6018027  39.2122530  16.5560333  12.4078513  40.7228815  16.1402048
  11.2026527  39.9244070  14.5586732  11.6908331  40.5835080  13.8372128
  11.0489216  38.9566000  14.0747218   9.8205530  40.5026989  14.9192874
   9.2770120  40.6984145  13.9888295   9.2556405  39.7414696  15.4637601
   9.8929606  41.7554505  15.7238713  10.3243772  41.5924669  16.6237083
  10.4257558  42.4672052  15.2430317   8.9685014  42.1311031  15.8907887
  14.7557052  40.1134398  17.2607386  15.7440839  40.7266924  16.8567063
  14.0465774  40.5479987  18.3119296  13.2279641  40.0202550  18.5944533
  14.3732540  41.7682787  19.0573958  14.5172289  42.5869131  18.3475915
  13.1850718  42.1266037  19.9592324  12.2921340  42.2808222  19.3522859
  12.9980347  41.3251913  20.6747737  13.3988032  43.0469715  20.5035125
  15.6835597  41.6273512  19.8557997  16.4982062  42.5484602  19.8714516
  15.9383721  40.4551473  20.4498034  15.2045787  39.7535940  20.4496268
  17.1791026  40.1533799  21.1809246  17.3122781  40.8897383  21.9766148
  17.0647575  38.7517187  21.8132456  16.6320047  38.0661998  21.0825249
  18.0675317  38.4002539  22.0660916  16.2205090  38.7432520  23.0977852
  16.7977261  39.2014940  23.9010848  15.3287405  39.3503685  22.9501380
  15.7726823  37.3371908  23.5361307  15.1819715  37.4622605  24.4456172
  15.1084497  36.9100370  22.7832010  16.9165900  36.3540218  23.8563375
  17.7391079  36.9051398  24.3239214  16.5419380  35.6408436  24.5975079
  17.4010639  35.5972929  22.6657476  16.6434157  35.0942147  22.2252315
  17.8153807  36.2121694  21.9805297  18.1055731  34.9149747  22.9278654
  18.4330476  40.2405909  20.2935997  19.4530108  40.7741761  20.7326728
  18.3639397  39.7446488  19.0495582  17.5061120  39.2754546  18.7848728
  19.5156580  39.7048701  18.1176702  20.4196025  39.9264755  18.6902175
  19.7410341  38.2814335  17.5454346  20.7297550  38.2816209  17.0798013
  19.7827512  37.2414001  18.6849269  20.4198603  37.6001196  19.4945825
  18.7796357  37.0577636  19.0718861  20.1984594  36.3024293  18.3197789
  18.7247131  37.9016945  16.4481524  17.7202096  37.8933050  16.8624482
  18.7609951  38.6573885  15.6661797  19.0041200  36.5439497  15.7873982
  20.0231930  36.5210784  15.3983698  18.8678337  35.7322331  16.5016622
  18.3098717  36.3940706  14.9606554  19.4924595  40.8069422  17.0368553
  20.4245908  40.8865629  16.2362655  18.4628120  41.6652832  17.0383532
  17.7056257  41.4580676  17.6745492  18.3266694  42.9129704  16.2618058
  17.3928426  43.3798768  16.5802411  19.4735919  43.8970362  16.6102727
  20.4358668  43.3911511  16.5417367  19.4999163  44.7121202  15.8872894
  19.3371764  44.5203415  18.0109761  19.1231444  43.7460737  18.7475021
  20.2895498  44.9783167  18.2773683  18.2550577  45.6038936  18.0594298
  17.1762936  45.4334247  18.6115349  18.4842204  46.7598698  17.4652227
  17.7710485  47.4730998  17.5085845  19.3615498  46.9291558  16.9950015
  18.1290591  42.7130866  14.7408420  18.3092125  43.6581890  13.9699605
  17.7332100  41.5197318  14.2812694  17.5173325  40.7864733  14.9444991
  17.5227577  41.2314342  12.8556089  18.2275718  41.8475148  12.2941910
  17.9123675  39.7788592  12.5173324  18.0715000  39.7262713  11.4375595
  18.8712427  39.5498418  12.9881944  16.8861237  38.7072409  12.9224337
  16.6098538  38.5659001  14.1336599  16.4079614  37.9754900  12.0244199
  16.1062190  41.6231760  12.3812775  15.0960077  41.0578379  12.8017154
  16.0276524  42.6206673  11.4924146  16.8835871  43.0890974  11.2268555
  14.7556632  43.1690037  10.9849777  14.0198364  43.1670458  11.7918827
  14.9815516  44.6254575  10.5390932  15.8009854  44.6568174   9.8190235
  14.0796881  44.9905005  10.0438994  15.2908088  45.5594676  11.7193040
  14.4175761  45.6110520  12.3724327  16.1326963  45.1648897  12.2884464
  15.6354647  46.9681158  11.2117546  16.5366921  46.9243879  10.5970393
  14.8170236  47.3255767  10.5844619  15.8385970  47.9760792  12.3528829
  15.9817483  48.9674915  11.9129209  14.9282099  48.0121090  12.9579593
  17.0072639  47.6430684  13.2107765  16.8790975  46.7531930  13.6722081
  17.8568963  47.5956399  12.6653053  17.1373196  48.3469400  13.9247969
  14.1361379  42.3400015   9.8430893  12.9384100  42.4580823   9.5717561
  14.9303560  41.4913305   9.1862123  15.8884701  41.4273549   9.4942790
  14.4890659  40.6069612   8.1049899  13.6732485  41.0858439   7.5604630
  15.6273538  40.3699376   7.0941707  16.5095611  39.9881315   7.6116828
  15.3008812  39.6244744   6.3666804  15.9963108  41.6541356   6.3393686
  15.1007492  42.0566421   5.8617310  16.3645846  42.4002422   7.0459899
  17.0687535  41.3840099   5.2740187  16.7096775  41.0753809   4.1126469
  18.2788440  41.4911026   5.5857033  13.9438358  39.2992759   8.6987336
  14.6474909  38.2939638   8.7885141  12.6691755  39.3202830   9.1083657
  12.1672694  40.1977829   9.0377598  11.9788422  38.1948424   9.7582958
  12.6720845  37.6877360  10.4311343  11.1387968  38.5825888  10.3357546
  11.4260898  37.1403513   8.7926070  10.8768455  36.1387129   9.2460159
  11.5691716  37.3373717   7.4753276  12.0143759  38.1953922   7.1861719
  11.1148707  36.3927070   6.4372629  10.2172195  35.9116640   6.8354589
  10.6070045  37.1423480   5.1736404   9.7673621  37.7378197   5.5379425
  11.5714989  38.1706078   4.5540415  11.9780197  38.8337191   5.3175255
  12.3853394  37.6817826   4.0283371  11.0271423  38.7804804   3.8321477
   9.9927388  36.2127883   4.0969862   9.3879125  35.4538667   4.5949590
   9.3097185  36.8132026   3.4939233  10.9524440  35.5098063   3.1190850
  11.4875176  36.2400277   2.5129753  11.6709497  34.8843184   3.6426553
  10.3711140  34.8752577   2.4500258  12.0615103  35.1918028   6.2103235
  11.5260711  34.0814889   6.1633344  13.4104378  35.3104401   6.1407036
  14.2031672  36.5097711   5.8907124  13.9676413  37.3153741   6.5780385
  14.0485767  36.8291513   4.8648897  15.6705067  36.1069987   6.0243110
  16.0051784  36.2204196   7.0533749  16.3094680  36.6921371   5.3615274
  15.6559321  34.6328463   5.6282531  16.4665509  34.0761276   6.0954468
  15.7355352  34.5555142   4.5430201  14.2748332  34.1342291   6.0636795
  13.9005531  33.5017160   5.2567754  14.3185906  33.2475419   7.3274744
  14.3898771  32.0375092   7.1303333  14.2552447  33.7218709   8.5937454
  14.3829987  35.0913628   9.0735247  13.6847764  35.7667010   8.5901018
  15.4090575  35.4252040   8.9219574  14.1028334  35.0530021  10.5740924
  13.0296094  35.0892848  10.7549473  14.6112402  35.8562438  11.1039188
  14.6444099  33.6829969  10.9583807  14.2024348  33.3139055  11.8855592
  15.7312410  33.7291079  11.0543360  14.2636599  32.8244907   9.7465677
  15.0363922  32.0739220   9.6098639  12.9216969  32.1152839   9.9713277
  11.8579841  32.5673033   9.5465374  12.9957136  31.0115835  10.7140224
  13.9208235  30.6438045  10.9220056  11.8815463  30.3225859  11.3696992
  11.1820775  31.0718805  11.7446892  11.1420475  29.4175617  10.3673618
  10.8330038  30.0127729   9.5080355  11.8331018  28.6465428  10.0207396
   9.8870552  28.7528627  10.9580909   9.1747438  29.4157546  11.7484333
   9.6199891  27.5776117  10.6133363  12.4115538  29.5182225  12.5712057
  13.5904512  29.1481059  12.6092280  11.5508685  29.2463883  13.5574294
  10.5743137  29.4954583  13.4227465  11.9026891  28.4185456  14.7109972
  12.9856311  28.3210499  14.7284476  11.5575689  29.1158465  16.0437328
  12.1792855  28.6592052  16.8148647  11.8619319  30.1614659  15.9830117
  10.1059901  29.0443887  16.5510566   9.8689526  28.0001248  16.7522657
  10.0561115  29.5798138  17.5004591   9.0382851  29.6408331  15.6242059
   7.9638295  29.0900724  15.4277627   9.2611447  30.8058733  15.0525691
   8.5271919  31.1778370  14.4709999  10.1141838  31.3097811  15.2158718
  11.3370656  27.0014814  14.5319708  10.1268902  26.7950975  14.4532563
  12.2316025  26.0171637  14.4412515  13.2145236  26.2510382  14.5189269
  11.9049142  24.6029863  14.2622695  10.8424217  24.5083603  14.0272386
  12.7160156  24.0604167  13.0658196  12.5364088  24.7215776  12.2161570
  13.7774988  24.0931635  13.3099261  12.3390000  22.6231668  12.6456974
  12.5345823  21.9471014  13.4765592  11.2739049  22.5917835  12.4152281
  13.1085047  22.0690446  11.4377048  13.1065391  20.8712320  11.1818885
  13.7879380  22.8726929  10.6415244  14.2720324  22.4620708   9.8571437
  13.8114007  23.8663919  10.8039264  12.1667057  23.8370942  15.5687307
  12.9628631  24.2669339  16.4063484  11.4884499  22.6968801  15.7243692
  10.8678386  22.4171109  14.9756583  11.5696375  21.7487064  16.8425447
  12.6188517  21.5186554  17.0349034  10.9713454  22.3669528  18.1197251
  11.0763106  21.6662536  18.9493849  11.5367742  23.2540687  18.3747762
   9.4943143  22.7435181  17.9574262   9.3967935  23.5312044  17.2101251
   8.9367531  21.8727823  17.6134308   8.8924848  23.2344388  19.2758676
   9.0862504  22.5168111  20.0746473   9.3515423  24.1811310  19.5420399
   7.4502764  23.4446209  19.1203974   7.1441862  24.3988808  19.0160118
   6.5436381  22.4896574  18.9927022   6.8281260  21.2341811  19.2530025
   7.7741582  20.9427772  19.4594434   6.1223129  20.5258323  19.1724769
   5.3332680  22.7856443  18.5842617   5.0782189  23.7335357  18.3660785
   4.6586708  22.0610925  18.4118111  10.8590886  20.4400871  16.4640109
  10.3956236  20.2936599  15.3299520  10.7392883  19.5104545  17.4158166
  11.1477560  19.7016280  18.3191675  10.0300177  18.2401431  17.2529801
   9.7166558  18.1350975  16.2114071  10.9873173  17.0668065  17.5705471
  11.4563428  17.2315871  18.5416142  10.3798495  16.1639555  17.6539034
  12.0849411  16.7928804  16.5089063  11.6304945  16.8201346  15.5175866
  13.2562596  17.7923089  16.5348631  12.9391965  18.7675652  16.1764493
  13.6518216  17.8851137  17.5469688  14.0538110  17.4501431  15.8736418
  12.6690048  15.3865159  16.7149010  13.1538628  15.3201828  17.6896312
  11.8777213  14.6390650  16.6530567  13.4032237  15.1723084  15.9362442
   8.7364594  18.2103980  18.0961965   8.6095588  18.8727077  19.1296190
   7.7767788  17.4084970  17.6344706   8.0293712  16.8470767  16.8313320
   6.5004259  17.0303928  18.2804466   6.4558625  17.4242847  19.2984324
   5.3011162  17.5968686  17.4479709   5.5157814  17.4530242  16.3903107
   3.9571178  16.9044520  17.7402126   4.0179178  15.8584511  17.4789037
   3.6868630  17.0082699  18.7902519   3.1601779  17.3082346  17.1215971
   5.1734027  19.1089063  17.7249480   5.0053473  19.2300919  18.7932989
   6.1262851  19.5643008  17.4643655   4.0936310  19.9367481  17.0048052
   4.4810242  20.3031095  16.0538839   3.1756833  19.3805743  16.8366506
   3.8292401  20.7984223  17.6133799   6.5102715  15.4946146  18.3912169
   7.1814549  14.8415810  17.5912838   5.7696267  14.8991463  19.3341391
   5.2541131  15.4794865  19.9823951   5.6520048  13.4331503  19.4680035
   6.6190440  13.0312407  19.7726709   4.6274306  13.1078424  20.5670190
   3.7138048  13.6796333  20.3909224   4.3537183  12.0545233  20.4833632
   5.0909923  13.3446183  21.9939978   4.8864903  14.5915936  22.6110916
   4.4584735  15.4110240  22.0548635   5.1978286  14.7659952  23.9693538
   4.9864409  15.7122275  24.4426312   5.7545920  13.7110384  24.7116987
   5.9815840  13.8430457  25.7613316   5.9959317  12.4744510  24.0897277
   6.4162388  11.6565658  24.6594060   5.6570496  12.2893392  22.7368377
   5.8112213  11.3241768  22.2756431   5.2610592  12.7213203  18.1486241
   5.7361162  11.6193554  17.8729367   4.4304116  13.3685755  17.3210826
   4.0219142  14.2183618  17.6757543   4.0120910  12.9409995  15.9790294
   3.9869469  11.8490597  15.9493391   2.5817120  13.4648301  15.7686469
   1.9283531  13.1110764  16.5675873   2.5793804  14.5556803  15.7573572
   2.1928359  13.1059768  14.8152107   4.9331740  13.4100149  14.8230033
   4.7736025  12.9382813  13.6955055   5.8725759  14.3319874  15.0777821
   6.0141329  14.5908288  16.0457809   6.7945787  14.9210971  14.0919640
   7.6588918  15.3338905  14.6136876   7.1396394  14.1515247  13.4008656
   6.1554738  16.0408427  13.2599229   5.6033676  15.7861860  12.1898000
   6.2586176  17.2864129  13.7409573   6.7877918  17.4123048  14.5912438
   5.6492139  18.5073763  13.1712255   5.6561443  18.4459681  12.0807917
   4.1904809  18.6400091  13.6641580   4.2084240  18.5872328  14.7458749
   3.8134553  19.6229455  13.3767081   3.1734707  17.5925088  13.1871048
   3.1046915  17.6086014  12.0967986   3.4849289  16.6017994  13.5198041
   1.8003728  17.8999688  13.8036312   1.9084794  17.9812193  14.8855556
   1.4351732  18.8516487  13.4146336   0.7955922  16.7868143  13.4837772
   0.6241551  16.7609358  12.4037634   1.2260954  15.8253446  13.7784772
  -0.4922268  16.9930563  14.1986658  -0.3550005  17.0020372  15.2004416
  -0.9219165  17.8691383  13.9340360  -1.1477446  16.2530762  13.9847825
   6.4425576  19.7765327  13.5792779   7.1382151  19.7710497  14.5987693
   6.3145527  20.8672551  12.8125524   5.6946118  20.8074606  12.0186621
   6.9174457  22.1837704  13.1038081   7.9109688  22.0407950  13.5372658
   7.0604993  22.9909641  11.7937022   6.0807335  23.0783072  11.3206490
   7.4028962  23.9972260  12.0395141   8.0620130  22.3905736  10.7890218
   9.0554381  22.3947736  11.2364519   7.7842028  21.3570507  10.5813776
   8.1286677  23.1438197   9.4506629   8.4088877  22.5656361   8.4073389
   7.8889568  24.4413292   9.3993396   7.9505986  24.9065536   8.5068754
   7.6630954  24.9629944  10.2321009   6.0858570  22.9933849  14.1246150
   4.9681870  22.6105659  14.4786814   6.6171335  24.1438376  14.5673805
   7.5269124  24.4176033  14.2224165   5.9032606  25.1423451  15.3759069
   5.1116046  24.6214034  15.9114407   6.9084316  25.7461410  16.3840260
   7.4260793  24.9232065  16.8707960   7.6589183  26.3058579  15.8224618
   6.3376686  26.6821291  17.4766560   5.9267288  27.5730911  17.0004604
   5.2198810  26.0400366  18.3159697   4.5165981  25.4895159  17.7004871
   5.6342757  25.3931845  19.0830834   4.6480018  26.8134243  18.8099531
   7.4808343  27.1265337  18.4073507   8.1652357  26.3038616  18.6114510
   8.0287766  27.9397032  17.9430164   7.0954183  27.4965564  19.3519831
   5.2235446  26.2115147  14.4937682   5.5869677  26.3917487  13.3293434
   4.2369026  26.9170415  15.0552511   4.0297533  26.7627981  16.0305054
   3.4590610  27.9832942  14.4152120   4.0545197  28.4446207  13.6263796
   2.1696730  27.4126093  13.7908177   1.6350859  26.8347208  14.5460037
   1.5362601  28.2462704  13.4826961   2.4159189  26.5227471  12.5631223
   3.0559685  27.0690505  11.8677364   2.9394951  25.6188393  12.8762458
   1.1210101  26.1153178  11.8387720   0.0275773  26.0941104  12.4520438
   1.1930488  25.7910195  10.6301364   3.1019747  29.0790505  15.4361385
   3.1359575  28.8537703  16.6460314   2.7566671  30.2715388  14.9451396
   2.7323172  30.3827165  13.9429291   2.3902539  31.4412448  15.7571610
   2.9903969  31.4483403  16.6688215   2.6952280  32.7313792  14.9681786
   2.0991499  32.7229033  14.0526185   2.3624931  33.5872645  15.5561600
   4.1749532  32.9498844  14.6046464   5.0737346  32.4734491  15.3318961
   4.4265438  33.6307248  13.5820812   0.8973200  31.4371933  16.1629358
   0.0446586  30.8994543  15.4502745   0.5738628  32.1095283  17.2786303
   1.3290032  32.5082151  17.8151148  -0.7978460  32.4995415  17.6556645
  -0.7662654  33.5175557  18.0438179  -1.4413696  32.4783056  16.7764589
  -1.4753988  31.6501239  18.7391060  -2.5711229  32.0065724  19.1734338
  -0.8338437  30.5686242  19.1983266   0.0589687  30.3560354  18.7737283
  -1.2372777  29.7317190  20.3495951  -2.0727292  30.2003727  20.8708319
  -1.6681174  28.3247660  19.8804786  -0.7851771  27.7951231  19.5331608
  -2.0501876  27.7714364  20.7390209  -2.7110211  28.2596742  18.7474977
  -2.2997825  28.7346936  17.8557657  -2.8795442  27.2103686  18.5023711
  -4.0662159  28.9089178  19.0659548  -3.9213527  29.9687969  19.2620003
  -4.7073041  28.8324779  18.1864013  -4.7290491  28.2959758  20.2322252
  -4.5831335  28.7562086  21.1176802  -5.5268157  27.2326943  20.2327630
  -5.8162880  26.5684963  19.1314875  -5.4211886  26.8536885  18.2504420
  -6.4297806  25.7691204  19.1598495  -6.0614572  26.8248123  21.3635516
  -5.8608614  27.3015862  22.2286527  -6.6571232  26.0122926  21.3829565
  -0.0525894  29.6230356  21.3284588   1.0823230  29.8404065  20.9055001
  -0.2772608  29.3054931  22.6139107  -1.2311501  29.1319349  22.8940529
   0.7970846  29.1562589  23.6291055   1.4210858  30.0387410  23.5813760
   0.2455508  29.1585932  25.0621394  -0.2488240  30.1172616  25.2407636
  -0.7346229  28.0334631  25.3796859  -1.5723898  28.0544247  24.6855449
  -0.2277143  27.0750040  25.3168109  -1.1200084  28.1622156  26.3905834
   1.3351202  29.0298729  25.9473157   1.0299083  29.2414728  26.8461818
   1.7086256  27.9612458  23.3330372   1.2395329  26.9366931  22.8383998
   3.0077911  28.0743627  23.6498248   3.3085535  28.9280351  24.1071218
   3.9988414  26.9973153  23.4700961   4.0405032  26.7474790  22.4102859
   5.3891298  27.4916702  23.9360608   5.6244966  28.4299337  23.4380289
   5.3353442  27.6986187  25.0066214   6.5564397  26.5047321  23.6858704
   6.3327006  25.5479489  24.1571459   6.8150791  26.2654956  22.1891360
   5.9419295  25.8174190  21.7164765   7.0493312  27.2105255  21.6991539
   7.6571106  25.5832808  22.0650019   7.8412078  27.0402071  24.3321704
   8.1129151  28.0009068  23.8935445   7.6868895  27.1635928  25.4036200
   8.6571536  26.3323882  24.1801146   3.5964923  25.7193738  24.2253618
   3.9125761  24.6160184  23.7902186   2.8738381  25.8673714  25.3358692
   2.6435989  26.8122051  25.6196902   2.4149266  24.7533571  26.1754963
   3.1985609  23.9964491  26.2024002   2.2280657  25.2794114  27.6082664
   3.0138485  26.0094202  27.8212565   1.2629628  25.7853122  27.6835544
   2.3195083  24.2387370  28.5747838   2.1532470  24.6094272  29.4656971
   1.1359577  24.0595723  25.6453933   0.7562590  22.9964698  26.1406113
   0.4718708  24.6187162  24.6209993   0.8445787  25.4725914  24.2180020
  -0.7039612  24.0241946  23.9560280  -1.2120105  23.3601581  24.6559632
  -1.7001552  25.1310817  23.5744395  -2.0070859  25.6514366  24.4845324
  -1.2067041  25.8545778  22.9209319  -2.9549212  24.5835254  22.8801714
  -3.8410052  24.0473044  23.5853758  -3.0660736  24.7220090  21.6405954
  -0.3164461  23.1837647  22.7275077  -0.9846254  22.1951751  22.4202260
   0.8027423  23.5111253  22.0724729   1.3209264  24.3189051  22.3889574
   1.4596744  22.5996321  21.1333436   0.7165428  22.2146424  20.4326080
   2.5404716  23.3354324  20.3330858   3.2692390  23.7757166  21.0167557
   3.0562702  22.5856277  19.7382781   2.0149053  24.3975481  19.3893463
   2.0896997  25.7576432  19.7410018   2.5351417  26.0509586  20.6796610
   1.5652177  26.7389891  18.8804558   1.6100297  27.7829325  19.1537988
   0.9446762  26.3599641  17.6691582   0.3583700  27.3043318  16.8807632
  -0.0557622  26.9292311  16.0916984   0.9062354  24.9960107  17.2982161
   0.4454069  24.7013090  16.3656880   1.4462612  24.0200895  18.1572238
   1.3999945  22.9768310  17.8776691   2.0831846  21.4121573  21.8813202
   2.6707260  21.5808311  22.9512831   2.0116172  20.2066370  21.3090160
   1.5282154  20.1095186  20.4277340   2.5474515  19.0005706  21.9470693
   2.4000529  19.1176440  23.0221918   1.7202775  17.7707181  21.5266542
   0.6591193  18.0228068  21.5594819   1.9674050  17.4963629  20.5003932
   1.9346777  16.5677708  22.4486795   2.3666468  16.6882812  23.5890248
   1.6235294  15.3695355  21.9881875   1.7556504  14.5738882  22.5937072
   1.2403973  15.2594854  21.0624138   4.0701992  18.8623074  21.7299938
   4.5487002  17.9429093  21.0608046   4.8356638  19.8207005  22.2705662
   4.3465491  20.5543103  22.7766569   6.3005233  19.7436778  22.4280319
   6.7587959  19.7896770  21.4421978   6.8609219  20.9243547  23.2766563
   7.9487389  20.8305044  23.2380080   6.5367015  22.2941245  22.6527853
   7.0326241  22.3806738  21.6913173   5.4633091  22.4253790  22.5205263
   6.9108550  23.0946390  23.2919285   6.5122825  20.9353094  24.7870226
   6.9021392  20.0306569  25.2497068   7.0462604  21.7660882  25.2461550
   5.0346499  21.0827984  25.1704631   4.6157478  21.9839388  24.7245097
   4.4674498  20.2082632  24.8546566   4.9535214  21.1700710  26.2526367
   6.6950440  18.3929900  23.0398456   6.0035409  17.9161078  23.9399586
   7.7881112  17.7771570  22.5744210   8.3285349  18.2050257  21.8359588
   8.3389521  16.5963124  23.2487759   7.6020260  15.7924029  23.2338977
   9.6232622  16.1070380  22.5562007  10.3297141  16.9347435  22.4637911
  10.0804732  15.3458399  23.1915336   9.3787416  15.4851764  21.1711317
   8.5798225  14.7468828  21.2492190   9.0632113  16.2555244  20.4678640
  10.6429173  14.8078049  20.6288525  11.7085618  15.4018738  20.5266480
  10.5892020  13.5384495  20.2740136  11.4317358  13.1013249  19.9322561
   9.7313736  13.0149981  20.3546213   8.6220379  16.9645703  24.7123162
   9.3466906  17.9239097  24.9776760   8.0203294  16.2517104  25.6711415
   7.4062341  15.4908143  25.4170742   8.1515198  16.6029442  27.0885185
   8.0810007  17.6873784  27.1733805   7.0025552  16.0054455  27.9244041
   7.0098552  14.9197683  27.8137719   7.1906223  16.2251706  28.9767212
   5.5951264  16.5232561  27.5645405   5.3426274  16.1777675  26.5661815
   4.8825280  16.0665526  28.2516454   5.3918760  18.0487520  27.6031654
   6.0362166  18.5240015  26.8633446   4.3581212  18.2548424  27.3182672
   5.6583486  18.6419330  28.9963640   5.0593689  18.0921714  29.7287750
   6.7120143  18.4988674  29.2531724   5.3157304  20.0884355  29.0611448
   5.8810681  20.6284894  28.4214835   4.3419482  20.2413287  28.8346379
   5.4713325  20.4519463  29.9922229   9.5449886  16.2164623  27.6144456
   9.8675404  15.0393807  27.7990798  10.3577179  17.2409121  27.8544175
  10.0043899  18.1662915  27.6566905  11.7441687  17.1970808  28.3104618
  11.8346617  16.4468916  29.0966209  12.6915917  16.7955114  27.1547224
  13.6973692  16.6647246  27.5549279  12.3647499  15.8325507  26.7619532
  12.7587234  17.8124347  25.9995071  11.7646599  17.9559693  25.5847707
  13.0912806  18.7713332  26.3965135  13.6975816  17.3862183  24.8579832
  13.7859923  16.1760835  24.5419387  14.3391637  18.2741078  24.2482212
  12.1015792  18.5648669  28.9151380  11.3312011  19.5220028  28.8175082
  13.2736623  18.6825427  29.5286624  13.8791997  17.8748869  29.6016392
  13.7876773  19.9554853  30.0425833  13.3605896  20.7727997  29.4656262
  13.3482321  20.1574827  31.4981594  12.2622566  20.0622640  31.5573291
  13.8002465  19.3858463  32.1239509  13.7302598  21.4455815  31.9659902
  13.4205211  21.5435254  32.8897177  15.3176753  19.9728602  29.9111119
  15.9972044  19.0844246  30.4354527  15.9166414  20.9267942  29.1913262
  16.9194459  20.8335962  29.1198778  15.3135487  22.0607313  28.4644856
  14.6005458  22.5703490  29.1126622  16.4390637  23.0529441  28.1721348
  16.9622046  23.2616988  29.1054936  17.4651754  22.5601297  27.1493255
  17.8615416  21.5892906  27.4426387  17.0083288  22.4752433  26.1634612
  18.2956207  23.2617532  27.1029133  15.8559328  24.2386625  27.7139834
  16.5432803  24.9206825  27.6595240  14.5726953  21.6398836  27.1838611
  14.9354020  20.6352623  26.5732487  13.5385350  22.3896089  26.7744694
  13.3020793  23.2056128  27.3290827  12.8365865  22.1931582  25.4907833
  12.6208727  21.1340009  25.3462430  11.5215226  23.0039130  25.4576295
  11.7657113  24.0419002  25.6720703  11.1343185  22.9696060  24.4368227
  10.3833087  22.5885368  26.4047798  10.7199717  22.6784927  27.4382346
   9.2060437  23.5540415  26.1794877   9.5187785  24.5794530  26.3810937
   8.8586685  23.4925530  25.1469925   8.3804092  23.3009712  26.8443820
   9.9160739  21.1492040  26.1509039   9.5916738  21.0381017  25.1163329
  10.7267822  20.4495191  26.3459426   9.0859885  20.9104419  26.8163219
  13.7140919  22.6663433  24.3224550  14.0360017  23.8477357  24.2495842
  14.0659443  21.8017971  23.3728165  13.8068253  20.8298998  23.4669566
  14.9373469  22.1909600  22.2561299  15.5960335  22.9980542  22.5837687
  15.8477573  21.0162428  21.8824105  15.2419898  20.1323763  21.6774305
  16.3906185  21.2675822  20.9692289  16.8554036  20.7047480  22.9587755
  16.6985278  19.8037940  23.9855896  15.8730681  19.2251613  24.1564121
  17.7984320  19.8538059  24.7539265  17.9463488  19.2605851  25.6486635
  18.6793599  20.7496943  24.2671603  18.0766297  21.3020823  23.1283170
  18.4915107  22.0789575  22.4964261  14.1649952  22.7260265  21.0322805
  13.5022246  21.9730441  20.3115358  14.3241166  24.0273512  20.7650811
  14.8787380  24.5726961  21.4177087  14.0153438  24.7068535  19.5029980
  13.4774802  24.0285523  18.8440744  13.1531074  25.9694236  19.7695267
  13.5552413  26.4997045  20.6345259  13.2531738  26.6381862  18.9132431
  11.6391956  25.7419342  19.9747988  11.2489749  25.2684558  19.0775376
  11.3172525  24.8288638  21.1736074  11.4967816  23.7900153  20.9005676
  11.9461971  25.0675895  22.0256323  10.2728688  24.9294093  21.4700891
  10.9076491  27.0899465  20.0815462  11.3847175  27.7350196  20.8137375
  10.9283154  27.5902938  19.1143990   9.8667687  26.9340363  20.3643973
  15.3269523  25.0878153  18.7937626  16.3969878  25.1349008  19.3992644
  15.2448723  25.4121500  17.5079646  14.3575334  25.2297810  17.0354672
  16.3669054  25.9437798  16.7209693  17.0761390  26.3923240  17.4173279
  17.1187312  24.8132102  15.9692299  17.3908279  24.0570446  16.7062598
  16.2762360  24.0961493  14.8981673  15.3645524  23.6998253  15.3421969
  16.0179424  24.7744765  14.0877882  16.8402132  23.2609312  14.4830411
  18.4336566  25.3265604  15.3570810  18.2736182  26.2474043  14.8041568
  19.1538227  25.5372841  16.1393187  18.8591805  24.5726338  14.6961378
  15.8784407  27.0693798  15.8071875  14.9289761  26.8936727  15.0460839
  16.5221860  28.2348828  15.9070186  17.3150800  28.2849196  16.5351872
  16.2893218  29.3858687  15.0366175  15.2612570  29.3683561  14.6730646
  16.4960583  30.6702042  15.8722708  15.8818919  30.5812145  16.7695874
  17.5342984  30.7105354  16.2062815  16.1411234  32.0323196  15.2294522
  16.2980432  32.7873679  16.0024191  17.0447980  32.4243573  14.0519310
  18.0904596  32.3016771  14.3342806  16.8251510  31.8150704  13.1775427
  16.8735861  33.4703985  13.7971887  14.6652132  32.1116497  14.8120473
  14.4666928  31.4309356  13.9860643  14.0275613  31.8547358  15.6580980
  14.4310842  33.1283533  14.4951805  17.2372551  29.2433388  13.8385943
  18.4538741  29.3816575  13.9854337  16.6798748  28.9360515  12.6613304
  15.6682546  28.8616388  12.6138144  17.4363208  28.6976133  11.4209132
  18.4867596  28.9451752  11.5823996  17.3570136  27.2233050  10.9810050
  16.3142250  26.9487124  10.8063241  17.8998947  27.1204146  10.0404096
  17.9647219  26.2608355  12.0066063  18.9399369  26.6301497  12.3240446
  17.2980056  26.2383972  12.8634790  18.1120938  24.8275206  11.4739523
  18.3761935  24.1650730  12.2994420  17.1481107  24.4925776  11.0869334
  19.1298650  24.7214532  10.4067478  18.7799282  24.6931285   9.4595310
  20.4475983  24.6153364  10.5578531  21.0230330  24.6304043  11.7427862
  20.4632393  24.7339814  12.5718693  22.0242278  24.5418215  11.8255812
  21.2180818  24.4893814   9.4992425  20.8197419  24.4678417   8.5732172
  22.2171699  24.4012552   9.6004994  16.9210934  29.5734138  10.2881782
  15.7221376  29.8365782  10.1910269  17.8283432  29.9728060   9.3975580
  18.7900404  29.7098444   9.5519105  17.4996465  30.6493569   8.1480408
  16.6919409  31.3625249   8.3176000  18.7232358  31.4307548   7.6139011
  19.5398570  30.7312598   7.4293059  18.4394460  31.8426336   6.6433848
  19.2711386  32.6069994   8.4570434  19.9582647  33.1547006   7.8119889
  18.1742624  33.5856314   8.8985097  17.5967170  33.9106977   8.0358329
  17.5108119  33.1086379   9.6191736  18.6285299  34.4618110   9.3633405
  20.0819728  32.1626431   9.6850206  19.4300886  31.7654785  10.4630611
  20.8105271  31.4039362   9.3966757  20.6178892  33.0206009  10.0939708
  16.9734855  29.6069442   7.1426678  17.7512270  28.9037639   6.4910219
  15.6438854  29.5107177   7.0398316  15.0968343  30.1273375   7.6284940
  14.9250518  28.8216865   5.9617701  15.5107278  27.9517295   5.6647736
  13.5799790  28.2740852   6.5039549  13.0717276  27.7135558   5.7185736
  13.8243032  27.5443594   7.2799816  12.5769892  29.2642285   7.1334621
  11.7969055  28.6669869   7.6077454  13.0720164  29.8385155   7.9158989
  11.8797299  30.2200895   6.1566148  12.6136059  30.8728704   5.6869784
  11.3900614  29.6238772   5.3857706  10.8921407  31.0614384   6.8529966
  11.1341097  31.3500331   7.7925235   9.7692687  31.5598266   6.3452171
   9.3952115  31.3377629   5.0991233   9.9782476  30.7947883   4.4846615
   8.5446804  31.7399155   4.7371256   8.9914985  32.3019816   7.1031916
   9.2742932  32.5264018   8.0442346   8.1399160  32.6941940   6.7349270
  14.8245121  29.7205562   4.7105235  15.5640746  30.6990130   4.5713309
  13.9128298  29.3983265   3.7878277  13.3946882  28.5428418   3.9212874
  13.6710440  30.1481634   2.5430236  12.5956672  30.2620261   2.3827570
  14.1094281  31.1464294   2.6093410  14.2480595  29.4391001   1.3151306
  14.3480195  28.2106323   1.2907585  14.5957538  30.2198203   0.2899622
  14.4790237  31.2163358   0.4084997  15.1308112  29.7525022  -0.9994556
  16.2166109  29.8362888  -1.0093527  14.8699993  28.7089810  -1.1659259
  14.5748184  30.5555080  -2.1778772  13.7153336  30.0101005  -2.9086889
  14.9843561  31.7270726  -2.3497277
