    
 1231
   8.7567229  27.7300489  31.1599445   9.1396230  28.5497641  31.6116704
   8.7214049  27.9129724  30.1652885   7.8217242  27.5654816  31.4972300
   9.6218338  26.5513011  31.4243995   9.6722847  26.4008023  32.5050717
   9.0618571  25.2514954  30.7927882   9.6533396  24.4112284  31.1587836
   8.0402352  25.0925831  31.1397809   9.0802152  25.1964371  29.2535438
  10.0989508  25.3639644  28.9038525   8.8058592  24.1861338  28.9486186
   7.9898030  26.3628029  28.3840992   6.3909820  25.5218509  28.5457104
   6.4448034  24.5379436  28.0789895   6.1302673  25.4098445  29.5979799
   5.6224563  26.1111077  28.0451795  11.0385950  26.8505408  30.9462089
  11.2473279  27.8659206  30.2805311  12.0119386  25.9797421  31.2256955
  11.8203519  25.1509102  31.7724982  13.3022306  26.0854507  30.5505666
  13.6392232  27.1230533  30.6244768  14.3636486  25.2052263  31.2296448
  14.2599547  25.2797667  32.3133934  14.2241754  24.1666478  30.9275881
  15.7702516  25.6984666  30.8348215  15.8247879  25.7883251  29.7506642
  15.9161200  26.6908718  31.2620470  16.9400348  24.8163386  31.2854373
  18.0782617  25.0404010  30.8890887  16.7425072  23.7980084  32.1008896
  17.5396296  23.2451870  32.3755792  15.8150149  23.5612842  32.4197466
  13.1050067  25.7348414  29.0661888  12.6879719  24.6279697  28.7170091
  13.3874089  26.7069080  28.2014838  13.7076420  27.5940105  28.5659736
  13.4295083  26.5576988  26.7462242  13.1532574  25.5388559  26.4763372
  12.4376947  27.5471766  26.0955942  11.6046523  27.5971070  26.7921803
  13.0157095  28.9707124  25.9534328  13.2594841  29.3805793  26.9326996
  13.9145237  28.9911076  25.3426332  12.2742180  29.5928948  25.4640950
  11.7906239  27.1176284  24.7620862  11.3266617  26.1407952  24.8735025
  10.9827445  27.8142478  24.5436695  12.6881130  27.1060004  23.5306616
  13.3328903  27.9722068  23.4945454  13.2827008  26.2016515  23.5060987
  12.0549102  27.1349399  22.6546195  14.8618503  26.7863356  26.2916257
  15.6226775  27.5362740  26.9093454  15.2132078  26.1680420  25.1812590
  14.5689812  25.4945934  24.7874747  16.4265949  26.4135101  24.4488679
  16.9592465  27.2139411  24.9394142  17.3112453  25.1608813  24.5046490
  17.2794608  24.7929031  25.5224837  16.9050567  24.3752328  23.8681031
  18.7628210  25.4060969  24.1568653  19.1443962  25.6562976  22.8286851
  18.4105649  25.6248587  22.0362566  20.4866228  25.9496932  22.5322071
  20.7890904  26.1394321  21.5198087  21.4507624  25.9964325  23.5491043
  22.4788777  26.2306795  23.3083183  21.0764365  25.7237965  24.8734674
  21.8196669  25.7470968  25.6595635  19.7386379  25.4145182  25.1723586
  19.4642068  25.1951400  26.1928875  16.0426602  26.8414107  23.0367718
  15.7502307  25.9856832  22.2130436  16.0083622  28.1509847  22.7668634
  16.1763215  28.7931183  23.5246001  16.0089656  28.6730024  21.3918924
  15.4493572  27.9876391  20.7548100  15.3802615  30.0788801  21.2287827
  15.9888066  30.8126948  21.7578788  15.3638444  30.4374706  19.7311904
  16.3675086  30.4003524  19.3088243  14.7215969  29.7465946  19.1840676
  14.9964695  31.4474501  19.5938058  13.9548562  30.1795676  21.7912433
  13.3173973  29.4120612  21.3512707  13.9760865  30.0668570  22.8746130
  13.5376110  31.1625332  21.5680216  17.4638408  28.7182902  20.9404022
  18.2378206  29.5544352  21.4055123  17.8442624  27.8382849  20.0169312
  17.1893638  27.1158968  19.7268323  19.1930577  27.8295872  19.4616394
  19.8837824  28.1373775  20.2498165  19.5994496  26.3978870  19.0689436
  19.3305815  25.7169490  19.8738336  19.0497880  26.0811587  18.1932368
  21.1164100  26.3242259  18.8130080  21.3640578  26.8719364  17.9045597
  21.6328972  26.8213212  19.6327893  21.6608108  24.8884291  18.7361717
  22.7210059  24.9061417  18.9953447  21.1586350  24.2729594  19.4851632
  21.5052714  24.2276017  17.3595040  21.8315695  23.1862825  17.4437863
  20.4485156  24.2172039  17.0833324  22.3184701  24.9125317  16.3166463
  22.0141952  25.8672204  16.1801962  23.2956959  24.9311368  16.5779274
  22.2501292  24.4305267  15.4311231  19.3413108  28.8625626  18.3340326
  19.2643722  28.5262362  17.1500028  19.5991461  30.1189516  18.7170760
  19.4935667  30.3237225  19.7030921  20.5410046  30.9935041  17.9976980
  20.4315763  30.8631763  16.9191244  20.2846156  32.4698861  18.3418459
  20.9798596  33.0972594  17.7811219  18.8645565  32.9251638  18.0028988
  18.6770026  32.7674719  16.9406990  18.1318389  32.3710302  18.5900119
  18.7594067  33.9887182  18.2201853  20.5058906  32.6514489  19.7219442
  20.2054310  33.5447393  19.9587533  21.9625068  30.5613006  18.3875022
  22.1406846  29.5435001  19.0617351  22.9926238  31.3250066  18.0161394
  22.8200299  32.1323291  17.4353859  24.3623406  31.0578392  18.4775720
  24.5637318  29.9859578  18.3988923  25.3936886  31.8068891  17.6097632
  25.1861327  32.8778416  17.6331854  26.3617757  31.6620324  18.0928802
  25.5405650  31.3397686  16.1455025  25.5780962  30.2502414  16.1183862
  24.3980919  31.8210750  15.2352281  23.4777254  31.2845352  15.4616445
  24.2402575  32.8919921  15.3675832  24.6486328  31.6286693  14.1913273
  26.8722992  31.8763580  15.5982555  26.8872117  32.9657782  15.6530396
  27.7019538  31.4769126  16.1837975  27.0032056  31.5659522  14.5611943
  24.5697659  31.4363994  19.9591389  25.4381085  30.8509276  20.6144878
  23.8072462  32.4158637  20.4791005  23.0729580  32.7957847  19.8964021
  24.0799398  33.0695400  21.7737592  25.1413561  32.9451002  21.9910456
  23.8530377  34.5901099  21.6963333  24.5406702  34.9955413  20.9516777
  22.4358405  35.0424425  21.3205537  22.1831289  34.6876905  20.3225776
  21.7038739  34.6761053  22.0389442  22.3905894  36.1320366  21.3108710
  24.1747976  35.1456902  22.9523090  24.1005804  36.1146699  22.8913847
  23.3519432  32.4247247  22.9498383  24.0021944  32.0752107  23.9374626
  22.0303322  32.2396348  22.8626407  21.5638600  32.4836460  21.9987387
  21.2057790  31.8513229  24.0110956  21.1734339  30.7625103  24.0518979
  21.6806036  32.1880634  24.9316810  19.7640703  32.3638174  23.9888466
  19.2159306  32.7073986  22.9409056  19.1222797  32.3247926  25.1627026
  19.6856491  32.1630470  25.9871964  17.6876867  32.0056797  25.2982387
  17.1159182  32.6866231  24.6614246  17.4899945  30.5630874  24.7704810
  16.4749240  30.2285971  24.9916724  17.5812206  30.6027247  23.6853358
  18.4978031  29.5025701  25.2813159  18.3467746  28.5932031  24.7118576
  19.5182100  29.7874792  25.0493641  18.4048809  29.2204152  26.7891384
  18.9919767  29.9676688  27.3214442  17.3645516  29.2927888  27.1094437
  18.9455066  27.8315967  27.1439636  18.3772280  27.0875627  26.5797462
  19.9935088  27.7664325  26.8378703  18.8134720  27.5491602  28.5968840
  19.3151705  28.2337074  29.1452358  17.8421985  27.5715071  28.8764878
  19.1842435  26.6370362  28.8305492  17.1297477  32.1650259  26.7373602
  17.9159602  32.2540633  27.6830496  15.7861762  32.1443525  26.8767535
  15.2656851  32.1426476  26.0102608  14.9392369  32.0177200  28.1012233
  14.9089322  30.9609678  28.3703155  15.5019855  32.7712568  29.3247180
  16.5104893  32.4218605  29.5432005  15.5288595  34.2944594  29.1581216
  16.0387794  34.5628619  28.2334090  14.5141167  34.6928569  29.1328536
  16.0685863  34.7442738  29.9919368  14.7040931  32.4500450  30.4402751
  15.1287880  32.8168131  31.2365350  13.4950967  32.4597552  27.8006548
  13.3046529  33.3780243  27.0032384  12.4876880  31.8450038  28.4408682
  12.7440192  31.1627860  29.1436752  11.0504765  32.2255901  28.3739818
  11.0013737  33.3063809  28.2225552  10.2810869  31.5484022  27.1956538
   9.2689320  31.9481313  27.1950419  10.8387305  31.9738661  25.8237806
  10.8144510  33.0617594  25.7436506  11.8664079  31.6491866  25.6956800
  10.2288695  31.5732634  25.0160887  10.1257715  30.0258707  27.4494158
  11.1079617  29.5979257  27.5937645   9.5882289  29.8638998  28.3820076
   9.3598006  29.2188876  26.3957467   8.2945411  29.3921367  26.5034555
   9.6785608  29.4687541  25.3856453   9.5185676  28.1557749  26.5627329
  10.2936173  31.9408091  29.6899216  10.8161333  31.3239050  30.6228114
   9.0107606  32.3237632  29.6914702   8.6990626  32.8183660  28.8682431
   7.9525736  31.9812676  30.6538120   8.3990142  31.5502339  31.5498082
   7.2461410  33.2781996  31.0623687   7.9804950  33.9450826  31.5182393
   6.5949737  34.0027940  29.8769901   7.3496063  34.3121417  29.1536554
   5.8792641  33.3513677  29.3791990   6.0833249  34.8976146  30.2299433
   6.2611564  32.9642420  32.0172360   5.9898804  33.7876697  32.4608948
   6.9818796  30.9523956  30.0576718   6.9311945  30.7788528  28.8408629
   6.1850574  30.2811029  30.8991701   6.2053471  30.5653004  31.8709729
   5.1994727  29.2620888  30.4927277   5.6902815  28.5139925  29.8662398
   4.5812330  28.5593851  31.7262548   4.0855644  29.3025682  32.3534071
   3.8009374  27.8972210  31.3423132   5.5117508  27.6981228  32.6071889
   6.1411308  27.0915454  31.9582398   6.3992801  28.5286480  33.5527764
   7.0932160  29.1572977  33.0003678   5.7760764  29.1639892  34.1828442
   6.9836834  27.8651276  34.1920313   4.6774481  26.7368449  33.4653702
   4.0181776  27.3014089  34.1255876   4.0780692  26.0883739  32.8252397
   5.3373449  26.1108087  34.0677322   4.0620593  29.8523607  29.6415607
   3.5113769  29.1586965  28.7881964   3.7270578  31.1300181  29.8517684
   4.2144473  31.6210734  30.5899595   2.6116614  31.8179952  29.1819049
   1.7834077  31.1117770  29.0991069   2.1146891  32.9944135  30.0481011
   1.2341808  33.4318102  29.5756911   1.8140053  32.6132033  31.0249968
   3.1666901  34.0951063  30.2472683   3.9609004  33.7062282  30.8816253
   3.6024334  34.3681339  29.2844135   2.5737579  35.3500002  30.9036713
   2.2790790  35.3191077  32.1233567   2.4144789  36.3830689  30.2123528
   2.9318478  32.2995286  27.7518448   2.0452689  32.8303235  27.0780427
   4.1804346  32.1559098  27.2865281   4.8464586  31.6460522  27.8557957
   4.6265502  32.6958497  25.9915218   4.3227549  33.7444022  25.9708701
   6.1703318  32.6644578  25.8582742   6.5898250  32.9738337  26.8182681
   6.7332675  31.2810672  25.5211001   6.3765557  30.5486694  26.2458787
   6.4466851  30.9739077  24.5154586   7.8170321  31.3332672  25.5479292
   6.7029151  33.6414728  24.8036836   6.3713621  33.3388702  23.8125566
   6.3491086  34.6452494  25.0223538   7.7942086  33.6515391  24.8217514
   3.9339119  31.9648565  24.8349786   3.8956590  30.7334911  24.7939661
   3.4092223  32.7257403  23.8744721   3.4734375  33.7301222  23.9703259
   3.0156976  32.1842282  22.5745937   2.8000436  31.1355686  22.6952961
   1.7254989  32.8319282  22.0481979   1.4458086  32.3326169  21.1210035
   0.9406975  32.6530135  22.7821282   1.8128291  34.3358281  21.7602513
   2.0926674  34.8665711  22.6699996   2.5892114  34.4968063  21.0130130
   0.4941134  34.9249894  21.2249135  -0.5928516  34.3344920  21.4381343
   0.5350865  35.9966103  20.5835821   4.1856200  32.2899262  21.5981547
   4.9367787  33.2489608  21.6760581   4.4054137  31.3282170  20.6979685
   4.2837327  29.9425050  21.0678451   3.2883493  29.6528168  21.3619711
   4.9652198  29.7552212  21.8938007   4.7234880  29.1457178  19.8686502
   3.8527666  28.6858839  19.4070329   5.4268343  28.4044437  20.2267411
   5.3763617  30.1275976  18.8962860   4.7385112  30.2695061  18.0277438
   6.3678166  29.8027403  18.5861314   5.4521930  31.4176460  19.6933438
   6.3886170  31.4105906  20.2413013   5.4494241  32.6556283  18.7910696
   6.5049837  32.9912767  18.2674330   4.3367531  33.3889206  18.6609955
   3.4836924  33.0653517  19.0885334   4.3769784  34.7470832  18.0783641
   4.8447819  34.7074099  17.0941887   2.9573904  35.3034769  17.9145658
   2.2732290  34.5074784  17.6397922   2.6177562  35.7219536  18.8588989
   2.9152436  36.3045871  16.9120020   2.0238036  36.7083937  16.8870217
   5.1844547  35.7204204  18.9621560   5.9646773  36.5407478  18.4762347
   5.0677533  35.5555587  20.2829999   4.5329500  34.7581413  20.6061262
   5.8225174  36.2549071  21.3154421   5.8512869  37.2999900  21.0389601
   5.0419684  36.2093762  22.6465314   3.9938432  36.4297169  22.4358048
   5.0850916  35.2081167  23.0645818   5.5107170  37.2053707  23.7227440
   6.1866264  38.2088148  23.4015490   5.1436510  37.0040879  24.9047133
   7.2660305  35.7093254  21.4048286   8.1941359  36.5062429  21.5207032
   7.4998963  34.3896520  21.2398866   6.6950643  33.7751401  21.1717293
   8.8669457  33.8242875  21.2070632   9.3971039  34.2745434  22.0463074
   8.9288009  32.3012694  21.4529530   8.0516866  31.9951697  22.0246402
   9.0776276  31.3872864  20.2289594   8.3567589  31.6465595  19.4599308
  10.0792044  31.4702949  19.8070106   8.9060841  30.3515066  20.5247169
  10.0727657  32.0704685  22.2406500  10.2038347  31.1130524  22.3311912
   9.6317527  34.2851341  19.9728047  10.7285353  34.8237143  20.1198295
   9.0526510  34.2022317  18.7656887   8.1289777  33.7845668  18.6879114
   9.7351615  34.6832582  17.5526119  10.7309713  34.2342644  17.5591267
   9.0529459  34.2319329  16.2341326   8.7858142  33.1810674  16.3437383
   7.7599000  35.0032409  15.9286304   7.1203057  35.0058681  16.8044328
   7.9840948  36.0310710  15.6422922   7.2195672  34.5159641  15.1169940
  10.0698386  34.3508747  15.0696548  10.4734145  35.3621180  15.0412070
  10.8987451  33.6690096  15.2631042   9.5243940  34.0443594  13.6664497
   9.0208521  33.0782309  13.6456865   8.8235229  34.8205869  13.3577553
  10.3505659  34.0301968  12.9531298   9.9760932  36.1914557  17.6197062
  11.0935041  36.6067476  17.3136071   9.0137385  37.0028158  18.0917695
   8.1045414  36.6215429  18.3331232   9.2426488  38.4474514  18.1932935
   9.6427513  38.7306048  17.2306430   7.9646014  39.2942741  18.3220548
   8.2060154  40.3026223  17.9884204   7.2067817  38.8936141  17.6488016
   7.3981950  39.4138989  19.7366790   7.0982789  38.4278105  20.0488441
   8.1767849  39.7563097  20.4183736   6.2087110  40.3881867  19.8173775
   5.2811263  40.3189353  18.9769324   6.2026222  41.2589931  20.7212418
  10.3039749  38.7999556  19.2457490  11.1126856  39.6990233  19.0097321
  10.3626187  38.0633947  20.3646649   9.6490093  37.3597123  20.5276945
  11.4073114  38.2328585  21.3732583  11.4657275  39.2888310  21.6402499
  11.0999999  37.4248909  22.6499504  10.8649974  36.3940258  22.3819263
  11.9925059  37.4030946  23.2768474   9.9689756  38.0093599  23.4980756
   9.7174629  39.2098320  23.5123699   9.2825334  37.1788883  24.2647106
   8.4678687  37.5367638  24.7398896   9.4690446  36.1901434  24.2316238
  12.7719305  37.8377405  20.8072343  13.7263938  38.5941136  20.9644659
  12.8815960  36.6984744  20.1163644  12.0477360  36.1133741  20.0195201
  14.1585270  36.2391538  19.5447114  14.8830133  36.2019614  20.3606389
  14.0617329  34.8126391  18.9597084  13.2685836  34.7888631  18.2118450
  15.3812116  34.3705130  18.3006896  15.5929271  34.9730694  17.4168574
  16.2056962  34.4737566  19.0080718  15.3070541  33.3262336  17.9996877
  13.7368254  33.7909086  20.0650326  14.6352812  33.5482681  20.6333234
  13.0008006  34.1724182  20.7671389  13.3360205  32.8868009  19.6066935
  14.6795063  37.2426202  18.5084631  15.8380037  37.6454731  18.6125626
  13.8411162  37.7255771  17.5756098  12.8886914  37.3705460  17.5192177
  14.2929758  38.7162965  16.5834355  15.2148675  38.3260443  16.1603143
  13.2929302  38.8655906  15.4139904  13.7730834  39.4442139  14.6248417
  13.0590547  37.8789190  15.0111248  11.9922879  39.5726445  15.8090519
  11.4743568  38.9192154  16.4903771  12.2281463  40.4990986  16.3234339
  11.0690072  39.9181604  14.6323067  11.5734134  40.6398139  13.9877844
  10.8777008  39.0159567  14.0475404   9.7166299  40.5045832  15.0886314
   9.1557782  40.8091034  14.1994215   9.1376242  39.7154633  15.5756443
   9.8551813  41.6721350  16.0073533  10.3298692  41.4159493  16.8639569
  10.3775120  42.4194242  15.5695588   8.9476159  42.0435228  16.2586964
  14.6688334  40.0732918  17.2069354  15.6339041  40.7085944  16.7755322
  13.9584502  40.5013643  18.2601104  13.1633657  39.9472938  18.5616715
  14.2408824  41.7493812  18.9715613  14.3510060  42.5558639  18.2424923
  13.0466439  42.0843420  19.8754626  12.1433481  42.1891812  19.2734489
  12.8946323  41.2947403  20.6129059  13.2298150  43.0262220  20.3940806
  15.5599743  41.6624271  19.7577405  16.3809969  42.5749000  19.6917041
  15.8153182  40.5334985  20.4286687  15.0835349  39.8304139  20.4654990
  17.0574961  40.2712898  21.1698147  17.1751044  41.0202954  21.9561296
  16.9654701  38.8776802  21.8156301  16.5882549  38.1742641  21.0729933
  17.9704177  38.5698270  22.1097808  16.0768287  38.8257163  23.0676652
  16.6138249  39.2855425  23.8980556  15.1699084  39.4080676  22.9042780
  15.6706907  37.3916984  23.4592641  15.0940892  37.4631743  24.3831742
  15.0053242  36.9769182  22.7013561  16.8472780  36.4272569  23.7078347
  17.6619199  36.9800891  24.1851233  16.5123293  35.6644461  24.4167198
  17.3318868  35.7503468  22.4695825  16.5962013  35.2025943  22.0436878
  17.6656221  36.4184054  21.7890475  18.0981227  35.1209008  22.6788942
  18.3112917  40.3510925  20.2807675  19.2947339  40.9878542  20.6631024
  18.2864773  39.7236568  19.0940450  17.4542988  39.1905502  18.8658579
  19.4516131  39.6629208  18.1781157  20.3490100  39.8687601  18.7666337
  19.6678260  38.2404708  17.5952252  20.6485692  38.2431361  17.1147993
  19.7265584  37.1934872  18.7273004  20.4109836  37.5282246  19.5084392
  18.7368892  37.0389936  19.1590170  20.0953105  36.2421660  18.3438596
  18.6364549  37.8658451  16.5112054  17.6559802  37.7483471  16.9604095
  18.5822851  38.6741441  15.7850320  18.9797222  36.5824592  15.7432186
  19.9519190  36.6898450  15.2605419  18.9950415  35.7227135  16.4120352
  18.2241427  36.4079928  14.9766070  19.4658110  40.7709109  17.1046182
  20.4070059  40.8296645  16.3116600  18.4589298  41.6566425  17.0997608
  17.7104143  41.4946250  17.7587118  18.3602293  42.8810050  16.2846883
  17.4229968  43.3677424  16.5591089  19.5076401  43.8667219  16.6340738
  20.4671845  43.3546499  16.5760311  19.5405943  44.6712543  15.9000081
  19.3799108  44.5182233  18.0237112  19.2185503  43.7518931  18.7824438
  20.3218905  45.0184706  18.2519314  18.2612681  45.5652114  18.0915062
  17.2620611  45.4186917  18.7822272  18.3694621  46.6678357  17.3755453
  17.6330074  47.3538067  17.4458792  19.1866500  46.8334329  16.8069004
  18.2181619  42.6185048  14.7645749  18.6246591  43.4555010  13.9544788
  17.6326047  41.4867345  14.3432803  17.2484620  40.8459000  15.0298208
  17.4249721  41.1633020  12.9212957  18.1206420  41.7687854  12.3402345
  17.8342148  39.7130147  12.5958121  17.9778954  39.6524393  11.5150633
  18.8026908  39.5064753  13.0555887  16.8376824  38.6223086  13.0176204
  16.5017567  38.5468687  14.2183428  16.4472561  37.8073749  12.1488148
  16.0125016  41.5436496  12.4330908  15.0021272  40.9455165  12.8050864
  15.9419978  42.5731144  11.5802956  16.8006391  43.0570644  11.3526317
  14.6837445  43.1147779  11.0373241  13.9320740  43.1411500  11.8286184
  14.9369704  44.5534669  10.5550342  15.7892545  44.5537158   9.8720236
  14.0603286  44.9060559  10.0077810  15.2006479  45.5216450  11.7178016
  14.2886140  45.6286232  12.3084017  15.9898775  45.1235281  12.3555318
  15.6307208  46.8941217  11.1808188  16.5545116  46.7882096  10.6085071
  14.8566356  47.2665965  10.5077751  15.8363924  47.9251263  12.3003163
  16.0434282  48.8943266  11.8374091  14.9069206  48.0213654  12.8692719
  16.9574430  47.5657092  13.2105026  16.7726920  46.6972877  13.6933916
  17.8226779  47.4635072  12.6975717  17.0949244  48.2847432  13.9080075
  14.0897212  42.2681322   9.8976467  12.8807942  42.3177384   9.6540217
  14.9200190  41.4797988   9.2094045  15.8891178  41.4772224   9.4886890
  14.5055063  40.5779696   8.1333269  13.6782744  41.0321892   7.5845469
  15.6491255  40.3601280   7.1235797  16.5390642  39.9977568   7.6418718
  15.3355254  39.6047281   6.4006440  15.9916482  41.6474798   6.3617287
  15.0809131  42.0548566   5.9181549  16.3865710  42.3900423   7.0578603
  17.0214360  41.3784352   5.2546447  16.6170845  41.0294813   4.1195614
  18.2407763  41.5265441   5.5060026  13.9871406  39.2646753   8.7344536
  14.7046576  38.2676780   8.8172928  12.7180394  39.2736412   9.1613989
  12.2153496  40.1527570   9.1169402  12.0458491  38.1344827   9.7989648
  12.7540790  37.6225780  10.4513825  11.2063376  38.5024553  10.3890806
  11.4935778  37.0955947   8.8191766  11.0248521  36.0460909   9.2566250
  11.5463308  37.3567203   7.5050753  11.9137262  38.2555839   7.2274292
  11.1096880  36.4077139   6.4645674  10.1906214  35.9550727   6.8453039
  10.6578029  37.1249502   5.1589626   9.8025237  37.7243252   5.4729302
  11.6351752  38.1493184   4.5499561  12.0543639  38.7968006   5.3200158
  12.4398130  37.6593872   4.0106611  11.0978788  38.7723448   3.8362997
  10.0899501  36.1679761   4.0769592   9.4063709  35.4672846   4.5564618
   9.4939378  36.7699556   3.3906297  11.0773453  35.3604086   3.2110790
  11.7536021  36.0226733   2.6728019  11.6574281  34.6592094   3.8054999
  10.5130810  34.7859277   2.4765725  12.0423414  35.1919135   6.3064243
  11.4966883  34.0868230   6.3308203  13.3891233  35.2967893   6.2068050
  14.1924620  36.4833759   5.9375404  13.9644317  37.3027536   6.6103758
  14.0417975  36.7852711   4.9052591  15.6562698  36.0679970   6.0684811
  15.9977516  36.1907371   7.0921118  16.2945318  36.6415246   5.3938080
  15.6242262  34.5907591   5.6837179  16.4198976  34.0221189   6.1587954
  15.7122867  34.5056445   4.6000008  14.2344344  34.1107836   6.1090133
  13.8502465  33.5014265   5.2900750  14.2502626  33.2010422   7.3552908
  14.2723767  31.9925285   7.1359970  14.2092426  33.6589305   8.6291375
  14.4961509  35.0011183   9.1148968  13.8558667  35.7512238   8.6611809
  15.5463861  35.2254157   8.9303311  14.2697726  34.9776891  10.6240513
  13.2211927  35.1717416  10.8483022  14.9150010  35.6885523  11.1382589
  14.6162064  33.5437780  10.9987577  14.0958504  33.2340421  11.9067167
  15.6944384  33.4445890  11.1365760  14.1775926  32.7431587   9.7674105
  14.9143579  31.9652996   9.6013727  12.8245136  32.0609792   9.9958957
  11.7673033  32.5068587   9.5496552  12.8954842  30.9750656  10.7645705
  13.8234123  30.6315601  11.0036639  11.7896064  30.2796752  11.4213571
  11.0663646  31.0195209  11.7691214  11.0895387  29.3302163  10.4319696
  10.7784379  29.8964113   9.5534868  11.8057486  28.5691508  10.1154450
   9.8418286  28.6483093  11.0166848   9.1099560  29.3039063  11.7950220
   9.5945094  27.4683040  10.6733928  12.3360706  29.5196287  12.6418122
  13.5247777  29.1831985  12.6939951  11.4778159  29.2415170  13.6264676
  10.4955665  29.4592002  13.4803769  11.8325338  28.3972032  14.7628320
  12.9159599  28.3068567  14.7836868  11.4696113  29.0478353  16.1104261
  12.0319214  28.5217062  16.8830555  11.8235617  30.0788242  16.1172045
   9.9953951  29.0085943  16.5388328   9.7085615  27.9648652  16.6522171
   9.9192656  29.4873325  17.5161736   8.9984801  29.6982820  15.6057932
   7.9013211  29.2208357  15.3578659   9.3198280  30.8578208  15.0754013
   8.6337731  31.3007952  14.4866680  10.2033094  31.2916961  15.2727287
  11.2684831  26.9893983  14.5480934  10.0680855  26.7974310  14.3574841
  12.1512077  25.9921341  14.5600261  13.1272622  26.2049834  14.7344926
  11.8146524  24.5887499  14.3489401  10.7471947  24.4911972  14.1440584
  12.5917257  24.0656176  13.1258084  12.3511125  24.7049420  12.2748609
  13.6605008  24.1405328  13.3276266  12.2437311  22.6068542  12.7570418
  12.4539003  21.9636380  13.6098545  11.1787972  22.5465938  12.5323298
  13.0219467  22.0226407  11.5696538  12.9505871  20.8318009  11.2898137
  13.7949345  22.7914815  10.8259796  14.2948754  22.3610241  10.0624521
  13.8848988  23.7765255  11.0176208  12.1289510  23.8018608  15.6207520
  13.0615101  24.1232173  16.3522559  11.3497896  22.7543261  15.8674548
  10.6012574  22.5579664  15.2152956  11.5208073  21.7769692  16.9409645
  12.5847255  21.5807106  17.0863915  10.9392122  22.3164961  18.2615720
  11.0473910  21.5692896  19.0489539  11.5012420  23.1931971  18.5595826
   9.4634366  22.6915728  18.1123378   9.3719839  23.5147689  17.4041392
   8.9115681  21.8360819  17.7219123   8.8243525  23.1236609  19.4260150
   8.9059484  22.3276804  20.1673919   9.3248671  24.0041968  19.8083428
   7.4300795  23.4691077  19.1559742   7.2415641  24.4400634  18.9701165
   6.4504710  22.6020590  18.9805799   6.5956116  21.3529424  19.3339321
   7.5050420  21.0059174  19.5946394   5.8062851  20.7321864  19.3237332
   5.3166200  22.9717109  18.4425315   5.1684374  23.9239796  18.1656486
   4.6017049  22.2991750  18.2256119  10.8465538  20.4726960  16.5187613
  10.3010168  20.3761768  15.4152717  10.8423539  19.4893188  17.4145455
  11.3139885  19.6384479  18.2954461  10.1305450  18.2346598  17.2297497
   9.7877132  18.1624605  16.1947992  11.1022699  17.0578993  17.4684120
  11.5608044  17.1675145  18.4503857  10.5097089  16.1414214  17.4765043
  12.2206321  16.8907764  16.4031105  11.7741088  16.9495474  15.4097031
  13.3538585  17.9337719  16.4851416  13.0169749  18.9013414  16.1196168
  13.7030388  18.0317869  17.5135242  14.1936013  17.6305678  15.8565472
  12.8613865  15.5013412  16.5407506  13.3256863  15.3981788  17.5225889
  12.1042528  14.7267659  16.4130761  13.6237046  15.3651898  15.7702033
   8.8628978  18.2201841  18.1102505   8.7984120  18.8142787  19.1913951
   7.8372475  17.5334213  17.6119894   8.0304987  17.0286339  16.7579755
   6.5741618  17.1792065  18.2914733   6.5435815  17.6231825  19.2883821
   5.3695511  17.7149126  17.4473317   5.5797187  17.5410229  16.3952485
   4.0129707  17.0592851  17.7625983   4.0650565  15.9912117  17.6037431
   3.7138086  17.2618494  18.7903635   3.2411490  17.4233418  17.0891129
   5.2574613  19.2295609  17.6956477   5.0401476  19.3549240  18.7549093
   6.2248342  19.6693874  17.4727061   4.2251929  20.0712779  16.9297725
   4.6540863  20.4274368  15.9911683   3.3153356  19.5189819  16.7220906
   3.9312223  20.9296410  17.5316528   6.6006818  15.6534970  18.4949311
   7.3384995  14.9607853  17.7913057   5.8137612  15.1052487  19.4281101
   5.2533950  15.7119888  20.0140853   5.6901757  13.6444520  19.5999362
   6.6481574  13.2460293  19.9401288   4.6327880  13.3420317  20.6687204
   3.7410320  13.9434402  20.4817804   4.3319013  12.2976104  20.5748984
   5.0916860  13.5593616  22.0941522   4.9376815  14.8171708  22.6975209
   4.5494774  15.6493146  22.1319998   5.2498371  14.9872381  24.0525166
   5.0742978  15.9477619  24.5084866   5.7627498  13.9153382  24.8025350
   5.9919528  14.0402637  25.8501605   5.9638491  12.6683399  24.1908670
   6.3569929  11.8410146  24.7662050   5.6210620  12.4881978  22.8393602
   5.7456988  11.5178766  22.3806589   5.3319356  12.9192416  18.2849512
   5.9230307  11.8891610  17.9578085   4.3987263  13.4897663  17.5129633
   3.9000949  14.2747469  17.9054980   4.0333001  13.0654819  16.1570161
   3.9459156  11.9764795  16.1339550   2.6558069  13.6726466  15.8473970
   1.9259722  13.3506254  16.5925043   2.7140332  14.7626807  15.8483439
   2.3234579  13.3417993  14.8620713   5.0591817  13.4714823  15.0719224
   5.1842257  12.7810294  14.0575498   5.7852254  14.5791847  15.2818775
   5.6518171  15.0440539  16.1678001   6.7863806  15.1455251  14.3648106
   7.5634022  15.6328392  14.9528824   7.2451581  14.3590259  13.7666450
   6.1810514  16.1809464  13.4145755   5.6705987  15.8413966  12.3481878
   6.2568643  17.4526984  13.8161232   6.7681790  17.6358148  14.6663256
   5.6572371  18.6441403  13.1917380   5.7093143  18.5665891  12.1038638
   4.1837483  18.7823577  13.6389756   4.1822744  18.7658844  14.7215373
   3.8006641  19.7516157  13.3149678   3.1759175  17.7156866  13.1870611
   3.0629726  17.7285249  12.1009301   3.5183938  16.7344760  13.5060034
   1.8222483  17.9899774  13.8628500   1.9721578  18.0638666  14.9405381
   1.4158384  18.9370839  13.5003792   0.8273145  16.8560583  13.5871450
   0.6020941  16.8411755  12.5168043   1.2957405  15.9006037  13.8458820
  -0.4276536  17.0256634  14.3706846  -0.2403520  17.0209784  15.3658780
  -0.8836373  17.8993592  14.1404173  -1.0791629  16.2759847  14.1726910
   6.4486379  19.9036175  13.6235797   7.2296445  19.8461573  14.5780052
   6.2446048  21.0415542  12.9526503   5.5360832  21.0504314  12.2331526
   6.9201818  22.3154554  13.2578068   7.9105325  22.1206869  13.6798312
   7.0952541  23.1317176  11.9612201   6.1107426  23.3227440  11.5291712
   7.5557901  24.0918954  12.2059171   7.9890408  22.4292634  10.9210725
   8.9853254  22.3081973  11.3464559   7.5850049  21.4388943  10.7099124
   8.1203770  23.1681966   9.5801198   8.6180170  22.6213204   8.6027177
   7.6948303  24.4106824   9.4488890   7.8063870  24.8595588   8.5535637
   7.2952126  24.9090695  10.2288910   6.1368026  23.1408019  14.2939494
   5.0082730  22.7987635  14.6567275   6.7215385  24.2563911  14.7517501
   7.6359583  24.5126471  14.4040538   6.0152699  25.2592769  15.5484487
   5.2426139  24.7336419  16.1030037   7.0171894  25.9056920  16.5278717
   7.5983853  25.1096875  16.9870594   7.7186260  26.5115363  15.9488111
   6.4126634  26.7935872  17.6404832   5.9590537  27.6738038  17.1849279
   5.3417521  26.0808984  18.4810902   4.6162262  25.5694563  17.8633641
   5.7968634  25.3960523  19.1852790   4.7688453  26.7809730  19.0594066
   7.5596497  27.2417798  18.5577924   8.2581323  26.4277847  18.7444785
   8.0846893  28.0702356  18.0987580   7.1925737  27.6030934  19.5055432
   5.3078460  26.2893806  14.6500158   5.7523429  26.5738976  13.5349204
   4.2046876  26.8456138  15.1527776   3.9051527  26.5836790  16.0808185
   3.4586869  27.9424516  14.5356461   4.0596111  28.4054239  13.7505059
   2.1447084  27.4381235  13.9120763   1.6119043  26.8245068  14.6384970
   1.5261807  28.3044326  13.6697643   2.3563791  26.6283327  12.6262063
   2.9743469  27.2197953  11.9477461   2.8951827  25.7101718  12.8681369
   1.0433084  26.2627038  11.9044744  -0.0681490  26.4593728  12.4573024
   1.1177398  25.7648178  10.7573465   3.1494828  29.0215349  15.5824483
   3.1002094  28.7540732  16.7842972   2.9465446  30.2501522  15.1086566
   3.0342810  30.3903182  14.1130554   2.5570723  31.4059022  15.9199596
   3.1394267  31.4119490  16.8438387   2.8869067  32.6880398  15.1312720
   2.3034306  32.6827064  14.2113569   2.5544136  33.5449477  15.7104120
   4.3682337  32.9102152  14.7699632   5.2690075  32.2399773  15.3216196
   4.6282454  33.7842256  13.9105063   1.0534874  31.3686100  16.2888831
   0.2584421  30.6719138  15.6517631   0.6496888  32.1662212  17.2888468
   1.3552589  32.7123335  17.7600189  -0.7605540  32.4723424  17.5898814
  -0.8225547  33.5147941  17.8995662  -1.3575693  32.3375055  16.6879884
  -1.4180986  31.6402712  18.6981089  -2.4930178  32.0205185  19.1617700
  -0.7895618  30.5447324  19.1433844   0.0830633  30.3075687  18.6904287
  -1.1929801  29.7043515  20.2929322  -2.0365819  30.1615639  20.8078905
  -1.5988043  28.2925651  19.8167190  -0.7040565  27.7696572  19.4934097
  -1.9942621  27.7369188  20.6671017  -2.6122058  28.2118854  18.6586426
  -2.1768169  28.6650361  17.7678736  -2.7877738  27.1589443  18.4311570
  -3.9640338  28.8833624  18.9364876  -3.8124569  29.9501322  19.0840121
  -4.6030780  28.7686863  18.0593666  -4.6247429  28.3256904  20.1304594
  -4.4042293  28.7713491  21.0076823  -5.4625545  27.2955365  20.1748079
  -5.8629283  26.6654375  19.0888302  -5.5347652  26.9612914  18.1840591
  -6.5063344  25.8921958  19.1529357  -5.9191708  26.8847743  21.3376665
  -5.6137901  27.3247008  22.1914378  -6.5375523  26.0911628  21.3913278
  -0.0172582  29.6045858  21.2798924   1.1150836  29.8067565  20.8479842
  -0.2359793  29.3020095  22.5720277  -1.1889378  29.1379565  22.8588699
   0.8448556  29.1785730  23.5855199   1.4407874  30.0779231  23.5369842
   0.3055477  29.1819178  25.0231553  -0.2274000  30.1190201  25.1964006
  -0.6137946  28.0193026  25.3714950  -1.4718816  28.0079159  24.7047112
  -0.0674317  27.0831072  25.2891025  -0.9711025  28.1287302  26.3936778
   1.4097366  29.1123323  25.8949660   1.1142463  29.3374514  26.7935457
   1.7877644  28.0069900  23.2875371   1.3381913  26.9801776  22.7825334
   3.0887980  28.1314638  23.6022573   3.3821916  28.9782827  24.0767723
   4.0873949  27.0645531  23.3865515   4.1247829  26.8422518  22.3200627
   5.4901056  27.5233662  23.8611143   5.7657433  28.4517083  23.3650625
   5.4415069  27.7302690  24.9318783   6.6145655  26.4852178  23.6144001
   6.3384264  25.5320879  24.0629433   6.8897652  26.2627844  22.1210271
   5.9910365  25.9179640  21.6116806   7.2292673  27.1976493  21.6778317
   7.6661622  25.5065021  21.9946795   7.9183182  26.9321560  24.2832000
   8.2328693  27.8997094  23.8894970   7.7625688  27.0061611  25.3591272
   8.7024586  26.1963657  24.0950785   3.6858306  25.7735638  24.1122151
   3.9098958  24.6769204  23.6090110   3.0681079  25.9137090  25.2832518
   2.9069802  26.8577629  25.6117620   2.6268572  24.7977452  26.1252376
   3.4323742  24.0660054  26.1917438   2.3742884  25.3539925  27.5356258
   3.2044323  26.0065088  27.8133465   1.4605360  25.9512358  27.5231672
   2.2704799  24.3290886  28.5127833   1.9901811  24.7275700  29.3615786
   1.3801222  24.0609600  25.5746554   1.0806651  22.9423681  26.0004621
   0.6560486  24.6488077  24.6092249   0.9836372  25.5344160  24.2399043
  -0.5249830  24.0471105  23.9665718  -1.0356641  23.4057291  24.6878188
  -1.5110693  25.1469860  23.5494094  -1.8510978  25.6653530  24.4448183
  -1.0004883  25.8674886  22.9111685  -2.7392640  24.5951434  22.8105954
  -3.5312829  23.8512882  23.4367773  -2.9251138  24.9307202  21.6180420
  -0.1496761  23.1735741  22.7595167  -0.7788765  22.1396025  22.5224439
   0.9218152  23.5267898  22.0416914   1.4149032  24.3720354  22.2967824
   1.5764490  22.5924355  21.1270846   0.8352776  22.2037958  20.4279123
   2.6804253  23.2843559  20.3247744   3.4234703  23.7074687  21.0031950
   3.1696614  22.5151850  19.7316785   2.1768549  24.3581234  19.3879820
   2.2053319  25.7061044  19.7854668   2.6259393  25.9780922  20.7415431
   1.6528607  26.6963190  18.9557518   1.6561393  27.7294700  19.2681621
   1.0494562  26.3371815  17.7303245   0.4099276  27.2807113  16.9844430
   0.0126875  26.9194191  16.1814989   1.0735520  24.9898642  17.3053252
   0.6285986  24.7113109  16.3604932   1.6410813  24.0040229  18.1345979
   1.6275530  22.9688105  17.8222331   2.1790226  21.4180260  21.9012382
   2.7745740  21.5984281  22.9643994   2.0983045  20.2098848  21.3420470
   1.6015159  20.1034947  20.4701833   2.6732167  19.0184841  21.9632742
   2.5715130  19.1400748  23.0423706   1.8478783  17.7772927  21.5743309
   0.7906520  18.0402729  21.5638744   2.1192154  17.4542349  20.5692988
   2.0099534  16.6153297  22.5546389   2.3976121  16.7780192  23.7054718
   1.6945027  15.4049423  22.1321159   1.7908758  14.6319837  22.7727124
   1.3449985  15.2638732  21.1974727   4.1864692  18.9259287  21.6793519
   4.6691388  18.0023192  21.0208978   4.9425641  19.9277596  22.1544398
   4.4504030  20.6592091  22.6585924   6.4073225  19.8754283  22.3182559
   6.8835465  19.9203717  21.3443181   6.9423224  21.0618389  23.1801120
   8.0317581  21.0222230  23.1083888   6.5373662  22.4412372  22.6263789
   6.9966446  22.5994378  21.6579601   5.4555906  22.5290490  22.5315572
   6.8916114  23.2300418  23.2914205   6.6322912  21.0155413  24.6973797
   7.0642180  20.1129643  25.1279338   7.1449893  21.8522823  25.1667173
   5.1619817  21.1117240  25.1190900   4.7241396  22.0351378  24.7423026
   4.5993394  20.2519201  24.7573940   5.1050498  21.1307928  26.2057851
   6.7981574  18.5230393  22.9185488   6.1114943  18.0624610  23.8296147
   7.8552016  17.8713265  22.4163264   8.3877846  18.2755796  21.6584158
   8.3787715  16.6688626  23.0747928   7.6373368  15.8696567  23.0295564
   9.6795223  16.1842421  22.4068908  10.3819778  17.0154729  22.3251232
  10.1274991  15.4310245  23.0577314   9.4804425  15.5491131  21.0214227
   8.6646432  14.8281812  21.0721692   9.2118225  16.3144123  20.2944431
  10.7545266  14.8378180  20.5496411  11.8086091  15.4343498  20.3737107
  10.7289367  13.5354680  20.3459160  11.5835533  13.0836880  20.0579147
   9.8865728  13.0032611  20.4987290   8.6332174  17.0169458  24.5491011
   9.3852556  17.9501113  24.8316063   7.9716190  16.3379561  25.4973432
   7.3158304  15.6165360  25.2329750   8.1214195  16.6774650  26.9168503
   8.0594148  17.7624918  27.0074178   7.0083951  16.0790493  27.8038725
   7.0260301  14.9925840  27.7070836   7.2518660  16.3065110  28.8432841
   5.5695779  16.5691646  27.5438369   5.2346584  16.1762933  26.5922466
   4.9226619  16.1319518  28.3051928   5.3402812  18.0894827  27.5326181
   5.9648740  18.5521817  26.7681697   4.2974353  18.2684600  27.2620696
   5.6144970  18.7160772  28.9077422   5.0048484  18.1940901  29.6516626
   6.6648379  18.5633308  29.1707046   5.2902002  20.1675569  28.9351630
   5.8807883  20.6864465  28.3005563   4.3245269  20.3286434  28.6795087
   5.4261732  20.5468435  29.8633616   9.5200860  16.2688736  27.4056075
   9.8499511  15.0842596  27.5198033  10.3303151  17.2798645  27.6968889
   9.9792576  18.2156673  27.5456539  11.7086011  17.2113527  28.1655649
  11.7800310  16.4450949  28.9389502  12.6682735  16.8221629  27.0154091
  13.6731172  16.7058066  27.4211380  12.3588688  15.8519185  26.6281886
  12.7316754  17.8276741  25.8523735  11.7360282  17.9965224  25.4576924
  13.0973995  18.7802725  26.2308216  13.6286514  17.3500208  24.6971712
  13.4924335  16.1863533  24.2492271  14.4608435  18.1510456  24.2098355
  12.0559031  18.5645021  28.8035415  11.2836707  19.5220486  28.7183314
  13.2190578  18.6710752  29.4344884  13.8257208  17.8634611  29.4986141
  13.7402218  19.9478639  29.9256213  13.2880639  20.7560702  29.3563392
  13.3537785  20.1735560  31.3907021  12.2708605  20.0807854  31.4904853
  13.8339519  19.4175490  32.0140924  13.7522998  21.4729470  31.8116657
  13.4890806  21.5913710  32.7468762  15.2616325  19.9777932  29.7415487
  15.9669208  19.0752259  30.2038975  15.8213027  20.9674774  29.0431937
  16.8220243  20.8973784  28.9349835  15.1694366  22.1014947  28.3629536
  14.4494247  22.5728023  29.0324939  16.2594489  23.1317630  28.0908076
  16.7543110  23.3665132  29.0316791  17.3178828  22.6714158  27.0908672
  17.7343597  21.7086915  27.3803126  16.8757696  22.5853672  26.0991185
  18.1311514  23.3941707  27.0664812  15.6409698  24.2866170  27.6108569
  16.3065530  24.9874421  27.5404457  14.4286223  21.6887665  27.0798623
  14.8047938  20.6995557  26.4539459  13.3771239  22.4204373  26.6838172
  13.1341199  23.2297779  27.2438994  12.6940922  22.2331492  25.3886757
  12.4647606  21.1778386  25.2345555  11.3970006  23.0657697  25.3232376
  11.6678721  24.1063090  25.4766734  10.9973647  22.9793918  24.3097516
  10.2671770  22.7361529  26.3091232  10.6164473  22.8975758  27.3289572
   9.1069426  23.7058122  26.0290102   9.4367217  24.7335921  26.1848407
   8.7665852  23.6026417  24.9982025   8.2737721  23.4986785  26.6996712
   9.7967796  21.2845754  26.1653073   9.5012046  21.0878070  25.1357384
  10.6009491  20.6038285  26.4358775   8.9504436  21.1042242  26.8281331
  13.6054319  22.7087654  24.2506251  13.9877278  23.8729158  24.2404654
  13.9224721  21.8786997  23.2581504  13.5832754  20.9282074  23.2745035
  14.8382690  22.2812364  22.1805017  15.4680599  23.1030438  22.5274473
  15.7977870  21.1306987  21.8532810  15.2308498  20.2255503  21.6319220
  16.3726160  21.3922704  20.9623041  16.7699292  20.8598920  22.9729494
  16.5951309  19.9708223  24.0065282  15.7847002  19.3650247  24.1535352
  17.6624874  20.0583048  24.8163655  17.7848709  19.4838066  25.7266322
  18.5418428  20.9665867  24.3499400  17.9702452  21.4884580  23.1810903
  18.3921358  22.2655191  22.5537956  14.1041720  22.7981083  20.9307164
  13.5272553  22.0237912  20.1612892  14.1916833  24.1139546  20.7100579
  14.6912293  24.6733416  21.3946487  13.8663108  24.8124193  19.4687780
  13.3749066  24.1298725  18.7815817  12.9438396  26.0259743  19.7520075
  13.3745862  26.6094590  20.5669082  12.9501908  26.6604730  18.8634783
  11.4622815  25.7243756  20.0739817  11.0365951  25.2228089  19.2090029
  11.2535710  24.8026312  21.2955085  11.3803783  23.7608355  20.9978108
  11.9800985  25.0113154  22.0743838  10.2519037  24.9233664  21.7115505
  10.6777518  27.0422000  20.2078367  11.1955870  27.7560528  20.8426083
  10.5560819  27.4911196  19.2228259   9.6878773  26.8533629  20.6215268
  15.1825008  25.2617954  18.8118878  16.1648743  25.5605933  19.4846075
  15.2104960  25.3514525  17.4891157  14.3960106  25.0024953  16.9825665
  16.3256616  25.9217480  16.7231331  17.0531246  26.3214821  17.4259401
  17.0593528  24.8380724  15.8889252  17.2905340  24.0107483  16.5592113
  16.2339077  24.2364018  14.7342261  15.3403945  23.7548204  15.1263625
  15.9394024  25.0003690  14.0178006  16.8220554  23.4806047  14.2133092
  18.4122480  25.3668932  15.3824686  18.3073975  26.3668251  14.9682104
  19.1162475  25.4288927  16.2023323  18.8297619  24.6958047  14.6317238
  15.8156376  27.1032546  15.9030066  14.8584728  26.9667171  15.1435843
  16.4421983  28.2703114  16.0767367  17.2438419  28.2938124  16.6973084
  16.2510093  29.4217800  15.1988281  15.2324149  29.4175541  14.8075982
  16.4602585  30.7268070  15.9988872  15.8149107  30.6843442  16.8759323
  17.4874961  30.7570784  16.3639098  16.1520150  32.0599537  15.2741278
  16.2945963  32.8498755  16.0090870  17.0951618  32.3906823  14.1075725
  18.1317787  32.2644326  14.4207071  16.8905691  31.7535045  13.2490007
  16.9483119  33.4286462  13.8065308  14.6926168  32.1367845  14.8010112
  14.5183167  31.4350454  13.9861462  14.0198058  31.9065607  15.6277738
  14.4769529  33.1455285  14.4466106  17.2271243  29.2408440  14.0331268
  18.4401305  29.3920464  14.1969316  16.6874819  28.9040841  12.8601024
  15.6784167  28.8173160  12.8021016  17.4567311  28.7248199  11.6235678
  18.4977145  29.0028283  11.7938892  17.4261253  27.2673704  11.1290721
  16.3925890  26.9665740  10.9438615  17.9773868  27.2070198  10.1911937
  18.0568740  26.2995483  12.1310350  19.0446648  26.6569299  12.4230857
  17.4138370  26.2934968  13.0046889  18.1565756  24.8628169  11.6006967
  18.4171911  24.1936663  12.4205976  17.1769161  24.5549587  11.2306889
  19.1539667  24.7321061  10.5219926  18.7910220  24.6964429   9.5798614
  20.4708933  24.6123718  10.6627138  21.0595618  24.6282322  11.8417063
  20.5115892  24.7408298  12.6773733  22.0614571  24.5370347  11.9131638
  21.2284150  24.4727258   9.5976157  20.8186018  24.4530644   8.6765850
  22.2284049  24.3822062   9.6891604  16.9080636  29.6214514  10.5292365
  15.7074263  29.8864958  10.4678629  17.7925478  30.0211477   9.6213638
  18.7561727  29.7525007   9.7505624  17.4190567  30.6136228   8.3460397
  16.6198796  31.3409124   8.4925422  18.6259867  31.3432453   7.7186185
  19.4210888  30.6194723   7.5332300  18.3030489  31.7084529   6.7419130
  19.2283671  32.5476400   8.4813649  19.9224397  33.0271886   7.7925490
  18.1788191  33.5959743   8.8757231  17.6333864  33.9233234   7.9944976
  17.4799252  33.1828216   9.6016654  18.6733111  34.4616935   9.3180682
  20.0445153  32.1574322   9.7244974  19.3895776  31.8779281  10.5496477
  20.7125769  31.3277989   9.4910555  20.6470878  33.0094471  10.0420314
  16.8762699  29.4901031   7.4411386  17.6324234  28.6275874   6.9827028
  15.5611601  29.5046178   7.2038201  15.0255617  30.2446839   7.6432783
  14.8967524  28.7945617   6.1019250  15.4846453  27.9095546   5.8529576
  13.5175237  28.2672929   6.5746571  13.0413012  27.7182480   5.7616384
  13.7162107  27.5312787   7.3569760  12.4945348  29.2597764   7.1684134
  11.7085401  28.6634902   7.6363122  12.9678982  29.8517604   7.9519204
  11.8106364  30.1869124   6.1545745  12.5490732  30.8266210   5.6750576
  11.3346627  29.5663415   5.3950875  10.8054227  31.0463996   6.8006440
  10.9915111  31.3171766   7.7577145   9.7444485  31.5945541   6.2162350
   9.4644398  31.4086688   4.9396920  10.0744599  30.8534357   4.3633264
   8.6628014  31.8523934   4.5190781   8.9351280  32.3533539   6.9227783
   9.1578184  32.5620134   7.8837628   8.1353016  32.7897955   6.4923168
  14.8931461  29.6884746   4.8415729  15.7244869  30.5927582   4.7200469
  13.9752648  29.4628117   3.8970129  13.3685786  28.6673291   4.0099882
  13.8017437  30.2738146   2.6833000  12.7482088  30.5389487   2.5715682
  14.3850224  31.1921228   2.7435533  14.2163659  29.5238512   1.4204995
  13.9845495  28.3179923   1.3154315  14.7555387  30.2577322   0.4415643
  14.8972639  31.2417309   0.6295011  15.1551019  29.7586089  -0.8837453
  16.2336328  29.8808711  -0.9886871  14.9075644  28.7012010  -0.9821982
  14.4728735  30.5289385  -2.0143682  13.6103467  29.9522479  -2.7139629
  14.7986856  31.7258272  -2.1740238
